# .PCD v0.7 - Point Cloud Data file format
VERSION 0.7
FIELDS x y z
SIZE 4 4 4
TYPE F F F
COUNT 1 1 1
WIDTH 661
HEIGHT 1
VIEWPOINT 0 0 0 1 0 0 0
POINTS 661
DATA ascii
3.405278 -7.8129492 -2.2311451
6.8862534 -16.191557 -2.4728279
5.6313477 -13.455572 -2.3964655
4.7613683 -11.376839 -2.3236589
3.6137571 -8.7763224 -2.2488754
4.0523734 -9.9250879 -2.2787125
6.2229915 -16.459982 -2.4731061
4.2816348 -11.630877 -2.3351383
5.0160103 -13.751497 -2.404896
7.2544055 -20.820114 -2.5783134
5.6569343 -16.68392 -2.4758897
3.957473 -11.786603 -2.3425443
4.5746026 -14.02087 -2.4230535
6.8241191 -21.140499 -2.5978267
5.0297027 -17.100481 -2.505116
4.0447531 -14.199215 -2.4256473
3.3173664 -12.051839 -2.3551347
-3.1740375 -10.932233 -2.4196765
-3.188216 -9.6065168 -2.3982778
-3.5137885 -9.4735899 -2.3941276
-4.0287924 -10.862102 -2.4625063
-4.4338703 -10.609909 -2.4442101
-11.122437 -14.949104 -2.6186812
-9.483386 -12.516568 -2.5799861
-14.239638 -18.794067 -2.7574179
-14.695711 -18.376095 -2.75161
-7.210505 -8.8063784 -2.4192607
-8.5315952 -10.419861 -2.5373244
-9.9710026 -12.108703 -2.5770679
-12.006313 -14.313645 -2.6256399
-15.273754 -17.895914 -2.7513781
-8.8436556 -10.119832 -2.5321403
-10.271275 -11.687429 -2.5563164
-12.289783 -13.822867 -2.5994754
-7.5471725 -8.4410515 -2.406786
-6.7532701 -7.4661307 -2.3853664
-10.607285 -11.523223 -2.5731771
-9.1314955 -9.7991858 -2.5236232
-12.565167 -13.413351 -2.5830531
-12.865699 -13.105947 -2.5811045
-7.8814864 -8.0286617 -2.3914006
-16.531715 -16.74078 -2.7513781
-10.96835 -10.918693 -2.5426984
-7.1390533 -7.0622172 -2.3793719
-17.056858 -16.112968 -2.7439442
-8.2410564 -7.7850146 -2.4096966
-11.279049 -10.525249 -2.5345924
-6.5819616 -6.1420774 -2.3567581
-13.791592 -12.505446 -2.6164546
-7.4304824 -6.7375474 -2.376605
-11.634025 -10.242347 -2.5465894
-7.5861712 -6.2602315 -2.3304932
-7.8401089 -5.9165349 -2.3272655
-10.454649 -7.8438706 -2.462523
-12.304444 -9.064992 -2.5109227
-9.3053818 -6.6081052 -2.4259138
-10.584058 -7.4689994 -2.440675
-8.1676779 -5.3815022 -2.3175819
-10.874823 -6.7190518 -2.4084585
-9.537612 -5.856112 -2.3789258
-13.036107 -7.9011669 -2.5044379
-6.7653003 -3.9390805 -2.2447906
-8.4614277 -4.8950577 -2.3161986
-15.948849 -8.9171667 -2.5680223
-11.005711 -6.0704679 -2.3680954
-13.233997 -7.2004371 -2.4752562
-7.6784759 -4.1777539 -2.2883799
-6.3387804 -3.3774877 -2.2412097
-9.8751516 -5.1538291 -2.3676984
-6.973527 -3.5869846 -2.2486496
-4.0988889 -1.9753071 -2.1537025
-5.9309964 -2.730463 -2.2062461
-6.6462293 -2.8995242 -2.2626567
-13.945458 -5.375515 -2.4554775
-6.1343122 -2.3449204 -2.2190509
-8.1347494 -2.9479496 -2.2650809
-9.2968502 -3.2757614 -2.3355656
-8.1962309 -2.5984232 -2.2508988
-7.4345617 -2.3070712 -2.2321115
-9.3250017 -2.8937068 -2.3134317
-6.8385887 -2.0140035 -2.2245288
-20.750345 -6.0442448 -2.5274394
-14.115874 -3.8061125 -2.4019778
-6.2419853 -1.6830484 -2.1844783
-16.895752 -4.3412356 -2.4516735
-7.5161648 -1.911657 -2.2238424
-10.500429 -2.6355758 -2.3011668
-11.772383 -2.8850391 -2.2836661
-9.4156723 -2.2466018 -2.2936039
-5.8419118 -1.3047515 -2.1786683
-7.5013814 -0.54165447 -2.1565869
-4.4607081 -0.29549891 -2.1160531
-3.5161433 -0.19104293 -2.0883195
-8.2041302 -0.42565393 -2.1506114
-13.950201 -0.67983913 -2.2946539
-9.3283434 -0.45460081 -2.212908
-6.3282971 -0.16239679 -2.1390216
-10.466637 -0.17721476 -2.2250712
-8.1571198 0.0042715138 -2.135416
-6.9036617 0.024097573 -2.1542304
-9.1943655 0.1380153 -2.1787853
-7.4726348 0.1787111 -2.1433563
-11.795012 0.41601166 -2.2236767
-13.734061 0.56602275 -2.2583389
-16.376581 0.9614774 -2.3055418
-19.813541 1.2778121 -2.3218527
-10.333205 0.66640759 -2.2009532
-8.0922871 0.54600197 -2.1232603
-13.534719 0.95118624 -2.2291572
-8.9941368 0.71101177 -2.1377456
-6.703867 0.57000971 -2.0994213
-11.611072 1.0546483 -2.1966445
-7.3742814 0.77766871 -2.1262667
-19.410704 2.1635399 -2.2839875
-6.2606053 0.75318223 -2.1306987
-11.571092 1.4597188 -2.1973853
-13.34309 1.7211223 -2.2103512
-8.9017401 1.1482334 -2.1266787
-19.184959 2.6996846 -2.2656355
-15.770921 2.40484 -2.2420788
-19.121912 3.0902238 -2.2651711
-11.451614 1.8855339 -2.1866465
-7.9856286 1.3392004 -2.1197147
-13.182759 2.3268461 -2.1993272
-6.6025972 1.2630969 -2.0976341
-9.9896288 1.9110463 -2.1618659
-13.051581 2.6577451 -2.188303
-18.822489 3.9425104 -2.24891
-11.260021 2.4303875 -2.1703529
-15.301956 3.4400246 -2.2042236
-7.1448617 1.7153293 -2.1069722
-7.8417349 1.9304696 -2.1141431
-6.4855967 1.6170403 -2.0857191
-12.79851 3.2670546 -2.1701455
-15.075665 3.8483403 -2.1866879
-18.412619 4.7618289 -2.2240536
-11.114351 2.8743677 -2.1629469
-9.6955252 2.6287639 -2.1352532
-14.914499 4.2259994 -2.1786158
-18.176636 5.2120652 -2.211277
-8.521163 2.4434037 -2.1003952
-5.9248776 1.7730389 -2.0897236
-22.700249 6.9314952 -2.2143581
-12.470062 3.8505898 -2.144206
-6.3059368 1.9870428 -2.0630805
-9.5204983 3.0292256 -2.1236103
-7.6276164 2.4518964 -2.0974286
-17.797144 5.8892865 -2.1922283
-10.788703 3.5701101 -2.141099
-8.3531704 2.8729649 -2.0930171
-12.237851 4.2904282 -2.1305878
-14.350155 5.0788355 -2.139369
-17.414459 6.3314624 -2.1669075
-10.623547 3.9002838 -2.1322117
-9.3019075 3.4759877 -2.1107197
-5.7463655 2.1656406 -2.0749984
-17.161053 6.5840735 -2.1494849
-6.09519 2.4613779 -2.0511656
-13.877028 5.6489873 -2.1056893
-16.833916 6.9075236 -2.1278811
-21.024073 8.7730064 -2.1253676
-8.1067324 3.4094207 -2.0837948
-10.286679 4.4322705 -2.1103637
-13.644142 6.0206294 -2.095947
-16.419144 7.4135284 -2.1067414
-20.4641 9.5338726 -2.1062319
-10.048381 4.7498441 -2.0940702
-11.540296 5.4970226 -2.1001093
-16.223097 7.7275958 -2.1013985
-7.1267762 3.3947184 -2.0665319
-7.8642564 3.7729826 -2.0667336
-8.7802362 4.2124367 -2.0699689
-13.248815 6.6460843 -2.083143
-19.898594 10.270424 -2.0891399
-9.8013935 5.0588727 -2.0781474
-15.691999 8.2769508 -2.0746839
-7.5999446 4.1195655 -2.0482888
-8.511672 4.6137691 -2.0579102
-11.094331 6.0538502 -2.0764396
-6.8734217 3.7506239 -2.0498173
-12.864046 7.1659179 -2.0695043
-15.415374 8.5871353 -2.0635333
-9.529232 5.3847961 -2.0622241
-12.612405 7.4648952 -2.059762
-18.849085 11.38845 -2.054584
-5.1365294 3.120604 -2.030822
-7.3298516 4.4531169 -2.0321496
-8.2258873 4.9974866 -2.0458512
-14.840105 9.0797806 -2.0344958
-10.649695 6.5568609 -2.0547156
-5.5146337 3.3952787 -2.0207825
-9.2219229 5.7557859 -2.0481524
-12.307141 7.77424 -2.0458448
-6.0188379 3.8521671 -2.0490882
-14.493433 9.3367987 -2.016144
-18.260672 11.840502 -2.0304322
-14.170854 9.6016026 -2.0017414
-17.721647 12.15699 -2.0049798
-11.871693 8.1927891 -2.0271957
-17.388357 12.380113 -1.9914175
-7.7132235 5.4916387 -2.0125854
-8.7306576 6.2160287 -2.0192688
-6.2314138 4.4645448 -2.0067644
-5.7279906 4.1296363 -2.024832
-6.9200282 5.0203166 -2.0256939
-4.8350205 3.5283432 -2.0224991
-13.465199 10.128345 -1.9703805
-9.6760607 7.4086165 -2.0021884
-11.28387 8.6928883 -2.0018661
-16.428802 13.039998 -1.9568617
-10.995589 8.9390593 -1.9915673
-6.606524 5.3708911 -2.0173936
-12.891262 10.604084 -1.9520289
-4.9173384 4.0449004 -1.9868248
-7.1863785 5.9832158 -1.987636
-9.2678766 7.7573934 -1.9856522
-15.880935 13.45372 -1.9418132
-5.8209877 4.9610596 -2.0022058
-8.0521765 6.8626375 -1.9933476
-12.521377 10.926942 -1.9434335
-10.575076 9.2773542 -1.9770932
-6.9069977 6.2016487 -1.9730822
-8.7726202 8.1634417 -1.9687917
-6.1546555 5.7272706 -1.9920322
-14.951617 14.069993 -1.9154319
-7.6203475 7.1710124 -1.9714997
-5.4595246 5.3202906 -1.9956214
-6.5796108 6.447732 -1.9581125
-9.8702326 9.7299719 -1.9478668
-14.267559 14.392611 -1.8907225
-11.410007 11.716788 -1.9125376
-8.0338326 8.6909504 -1.9444736
-11.08665 11.993469 -1.9099821
-13.61464 14.728234 -1.8712153
-7.0015063 7.5741868 -1.9433565
-13.174541 15.022686 -1.8641555
-4.0646672 4.8013783 -1.9629947
-8.7521114 10.397144 -1.9100118
-12.789492 15.193383 -1.8528227
-10.288397 12.440948 -1.8879137
-4.2691474 5.1936479 -1.9278078
-5.2174816 6.3473477 -1.9468426
-5.7556243 7.0822897 -1.9398164
-12.414218 15.368635 -1.8431619
-3.5998902 4.5111156 -1.9501528
-6.3747725 7.9883924 -1.9255819
-9.9038086 12.630797 -1.8769953
-7.1233497 9.1932974 -1.9107525
-12.026148 15.520782 -1.8318292
-4.4978657 5.9085717 -1.9439582
-11.680598 15.727936 -1.8277419
-9.4747667 12.832489 -1.8653804
-5.3378863 7.3200669 -1.9256781
-7.9016075 10.903612 -1.892476
-11.310584 15.986338 -1.8269987
-6.6243224 9.4219561 -1.8922709
-5.8341494 8.3506279 -1.9192867
-8.8705873 13.096883 -1.8498161
-3.6963735 5.5257463 -1.9063081
-4.9482169 7.4929762 -1.9086294
-10.627125 16.28953 -1.8145511
-4.3926778 6.7796607 -1.9141032
-3.925761 6.1361814 -1.9069834
-7.1152787 11.263965 -1.872435
-8.1332664 13.472033 -1.8402917
-5.8756804 9.7981243 -1.8770316
-4.5687156 7.6186657 -1.8882542
-3.0316195 5.0876074 -1.8480151
-9.6220245 16.578842 -1.7883557
-3.2541058 5.6068563 -1.8588985
-6.4161611 11.513367 -1.8523941
-7.4760394 13.700633 -1.8251922
-4.1123276 7.7439408 -1.8637207
-8.8516836 16.795803 -1.7712636
-3.6327224 6.9903026 -1.866608
-5.1874943 10.05059 -1.8582256
-5.9471207 11.686999 -1.8429303
-3.1650662 6.2198381 -1.8269559
-2.8570471 5.655993 -1.8170016
-6.7597828 13.878053 -1.8052143
-8.1645918 17.025555 -1.7616028
-4.7880321 10.129158 -1.8407164
-10.212249 21.77112 -1.6815495
-3.2579236 6.9454484 -1.8177294
-4.1758151 8.9022675 -1.852632
-6.4027667 13.965522 -1.7966191
-7.7409601 17.128376 -1.7536141
-9.3314352 22.004829 -1.6713651
-4.2730632 10.160242 -1.8108863
-2.8064523 7.0130725 -1.0616125
-2.7674534 6.9156179 1.0468601
-2.7751405 6.9949312 -0.70207733
-2.7287457 6.9344163 0.17301328
-4.5601964 11.998491 -1.8039619
-2.6371973 7.0013003 0.69799006
-2.340744 6.3791242 -1.7788382
-5.0047855 14.283424 -1.7699045
-7.7968969 22.251978 -1.648764
-3.4818792 10.216255 -1.7732744
-2.0125458 5.9050531 -1.7888865
-5.8930206 17.460316 -1.7192441
-3.7184749 11.800671 0.28725681
-2.801625 8.8910246 -1.7563528
-3.6718674 11.781751 -0.28651407
-2.1244538 7.094666 -0.51787204
-2.0522385 7.0776772 -1.2107161
-2.0696893 7.3043928 -0.1762628
-2.3832426 9.4392681 -1.5994811
-1.656314 6.5601349 -1.7712406
-1.7359264 7.2306509 -1.761934
-2.1418579 9.2774 -0.22105962
-2.1446903 9.4170504 -1.1294495
-1.9972298 9.008913 -1.7385783
-2.5857258 11.819566 -1.700417
-1.2906815 6.0721717 -1.7800661
-2.3857903 11.71605 1.6803762
-2.3529537 11.74335 0.83749622
-2.577728 13.894612 -1.6525922
-2.9915092 16.931087 -1.6040581
-1.116598 6.66538 -1.7692146
-1.3224896 8.0319977 -1.7302413
-2.2084551 13.927899 -1.6491077
-1.3790438 9.0226297 -1.7196927
-2.5425384 16.992222 -1.6029433
-1.4747734 10.259588 -1.7029141
-1.7085377 11.885821 -1.6876131
-0.82683057 6.1234198 -1.7717971
-2.728337 21.627357 -1.5243185
-1.081374 10.237039 -1.6912413
-1.2533137 11.864738 -1.6767576
-0.73224604 7.349123 -1.7499449
-1.3471961 13.965561 -1.6407448
-1.9547499 21.520639 -1.5110648
-0.68724048 8.0659256 -1.7206773
-0.76452953 8.9730425 -1.696734
-1.2993015 17.002378 -1.5908675
-0.79962343 11.820552 -1.6650671
-1.3136464 21.355391 -1.4961369
-0.37661117 6.7361317 -1.7661756
-0.36998627 7.3801365 -1.7508672
-0.53212672 13.914936 -1.6284329
-0.30926904 8.0872831 -1.7202615
-0.4195573 11.778701 -1.6564384
-0.60424089 16.963531 -1.5836219
-0.56373733 21.244627 -1.4860919
-0.16092797 8.9510412 -1.6867357
-0.035528887 10.177494 -1.672111
0.029029937 13.86151 -1.6209992
0.035490513 16.946371 -1.5810208
0.43258861 16.972759 -1.5839933
0.55286825 21.691969 -1.5173428
0.17248918 6.7676711 -1.7722535
0.57375509 11.81582 -1.6625619
0.67008352 13.799592 -1.6156564
0.61772269 11.946479 1.6812112
0.51083076 9.4019003 -0.43909544
0.65031242 11.969077 0.83819377
0.54194641 9.4276323 -1.3271548
0.57207549 9.0425072 -1.7071024
0.53237391 7.1302958 -1.1747253
0.55483276 7.1293898 -0.6671499
1.0069675 12.016778 0.56235516
0.54949427 6.1448579 -1.7690406
1.2383841 11.882236 -1.6789844
0.87182957 8.1444788 -1.7410527
1.6684519 14.012857 -1.6502693
2.7408571 21.484991 -1.5145526
2.4199078 16.98196 -1.6003424
1.3537999 9.1238232 -1.7378377
1.8334223 12.108684 -0.28433228
1.8757461 12.144635 -1.1464725
2.1730459 11.793619 -1.6853864
3.1568818 16.86862 -1.6010854
2.6540291 13.730551 -1.635402
1.6154288 8.113924 -1.7585171
2.2928536 10.266047 -1.7282048
2.6191449 11.726988 -1.6887265
1.6083704 7.0964684 -1.1954768
1.6231486 6.986124 0.33446902
1.3303856 5.6455436 -1.8098871
1.6861781 6.9751511 -0.1666071
2.0131438 8.0265198 -1.7589329
1.6756253 6.079175 -1.8081812
5.768909 20.675856 -1.5010198
2.0803108 7.2121367 -1.7785343
3.9738102 13.493158 -1.6449263
3.4296622 11.511924 -1.6881698
6.2018266 20.606411 -1.5047866
1.9822769 6.5863838 -1.8006177
3.132596 9.9900064 -1.7200989
5.1565046 16.284935 -1.5936542
6.6324506 20.522198 -1.508135
2.6792901 7.8211079 -1.7572699
4.0919433 11.297707 -1.6887265
5.8428049 15.992138 -1.5884522
4.9120669 13.20815 -1.6479462
3.3142881 8.6792641 -1.7504281
2.6945095 6.9975305 -1.7766899
2.1466465 5.4273496 -1.8212063
3.8774328 9.7336655 -1.7213957
2.3386033 5.8706832 -1.8120401
6.3928709 15.767414 -1.5873376
8.2555952 19.862093 -1.504089
4.8347311 10.99818 -1.6884482
5.666193 12.889612 -1.6465524
3.3443065 7.6077204 -1.7664179
8.7820988 19.678684 -1.5068793
7.090055 15.514635 -1.5914247
4.3897943 9.5353231 -1.7246382
3.2468455 6.8409305 -1.7942123
2.9838812 6.1972842 -1.8006177
4.0278277 8.3654776 -1.7493172
5.2579274 10.833087 -1.692345
9.4827967 19.399639 -1.5099487
2.796108 5.6799383 -1.8153478
3.7630787 7.4270716 -1.7697444
7.838943 15.246388 -1.5994134
9.9733372 19.248749 -1.5159477
6.6384721 12.464149 -1.6514307
8.1983242 15.074329 -1.6008998
10.413667 19.02096 -1.5163662
5.8188491 10.55825 -1.6942935
3.1336372 5.529675 -1.8225143
5.2263842 9.1628323 -1.7330685
4.6001554 8.0649357 -1.7493172
3.8593657 6.5466785 -1.800668
7.2462745 12.204126 -1.6597936
8.8187952 14.659556 -1.5960695
11.355796 18.633024 -1.525853
4.4207892 7.0692554 -1.7722393
7.5759807 12.035112 -1.6630458
5.6634245 8.8829584 -1.7307987
11.922272 18.337658 -1.5294805
5.1793528 7.7719903 -1.7596856
9.5959015 14.307158 -1.6072164
6.8991323 10.030799 -1.7109942
6.0666409 8.6608543 -1.7372836
9.9611359 14.126039 -1.6126041
8.289094 11.616596 -1.6688534
5.5321584 7.5615029 -1.7652402
13.089348 17.682795 -1.5384092
4.9815903 6.7297802 -1.7797242
3.8216562 5.1290131 -1.8340911
10.360137 13.833578 -1.6124184
7.357017 9.759553 -1.7176746
3.6006143 4.7213535 -1.8527811
4.6166849 6.0536895 -1.8038958
8.8172684 11.28154 -1.6744286
10.706565 13.615396 -1.6159482
6.7177701 8.2426767 -1.7470109
13.998296 17.078234 -1.5441294
11.066772 13.42507 -1.6231939
5.3457565 6.4849219 -1.7863773
6.0690165 7.1918869 -1.7730166
9.3049116 10.898506 -1.6758224
14.387457 16.851507 -1.5494308
4.5443268 5.2888699 -1.8254364
8.0754499 9.2897463 -1.7299217
11.532293 13.191801 -1.6347125
7.1087298 7.9926944 -1.7573864
14.890702 16.636808 -1.5612894
9.7166538 10.611308 -1.6825591
8.3680134 9.0810432 -1.7354887
11.927638 12.943979 -1.6421438
15.288313 16.504105 -1.573148
4.3558302 4.7022243 -1.83795
7.4173946 7.7754359 -1.7654926
4.8392639 5.0445738 -1.8299949
5.8661518 6.0809469 -1.7959414
10.176813 10.240957 -1.6883667
12.494694 12.499059 -1.648832
16.037638 16.043242 -1.5862622
8.8183498 8.7234383 -1.7432824
4.2198453 4.1744275 -1.8521854
16.417536 15.688939 -1.5879364
6.8954234 6.472971 -1.7819039
9.1610918 8.4506559 -1.7516328
10.642783 9.8174438 -1.6932451
16.68273 15.388997 -1.5870993
13.098042 12.018987 -1.6584927
5.1591439 4.734118 -1.8330339
6.3030024 5.6474242 -1.7988521
5.772049 5.1445179 -1.8320241
13.428915 11.760274 -1.6653668
8.2623243 7.1092348 -1.7907834
17.234673 14.740624 -1.5858437
7.245965 6.1602573 -1.7919021
13.719609 11.528453 -1.6718693
9.5748796 7.9973249 -1.7533028
17.53727 14.395022 -1.5865413
13.999368 11.292041 -1.6780001
6.5917134 5.3169475 -1.8000995
17.813072 14.113419 -1.589192
11.506649 9.061348 -1.7127583
5.0489745 3.9517941 -1.8385013
7.5941453 5.9097581 -1.8130095
9.900692 7.5641766 -1.7510761
8.7206335 6.6241231 -1.7992136
11.771809 8.7840328 -1.7176367
4.832408 3.518688 -1.8652917
18.69902 13.288696 -1.6041198
14.868689 10.44214 -1.6950922
9.0399055 6.3063226 -1.8108863
8.0059328 5.5518489 -1.835598
10.346048 7.1292706 -1.7658285
5.8230734 4.0125718 -1.8512681
12.174733 8.3330994 -1.7253026
15.211803 10.091393 -1.703081
15.527816 9.793539 -1.7127417
9.3682938 5.8744402 -1.8167226
12.60781 7.7989111 -1.7336655
10.836378 6.5756731 -1.7814158
7.4523306 4.4618964 -1.8462559
6.129806 3.6222701 -1.8639306
15.944273 9.3581963 -1.7248176
5.6157565 3.2960644 -1.8671675
8.5073433 4.993228 -1.8585567
20.064865 11.696802 -1.6240703
12.833599 7.4333949 -1.7343624
5.2057352 3.0152326 -1.8772068
6.7638402 3.8925257 -1.8490855
11.060904 6.2350407 -1.7844776
8.734601 4.6972022 -1.8685549
9.7793112 5.1866226 -1.8186681
7.7651038 4.1183538 -1.8682946
16.421827 8.6472645 -1.7315059
13.375989 6.8448381 -1.7571278
6.406229 3.2080002 -1.8755802
7.0904875 3.397193 -1.862919
11.566195 5.501935 -1.800065
5.4567275 2.5957162 -1.8855473
13.738714 6.4386101 -1.7743182
21.550669 10.099661 -1.66425
9.0229635 4.2285867 -1.8774424
16.90638 7.8620367 -1.7394946
10.195937 4.420629 -1.8258014
8.2237911 3.5366218 -1.902808
11.867257 5.0251341 -1.8111989
6.6532149 2.7708313 -1.8867233
14.101666 5.8266897 -1.7843071
17.518103 7.0032001 -1.7601165
6.2131906 2.3378608 -1.9035516
12.131891 4.5262804 -1.8198276
5.7025757 2.0891044 -1.8950793
14.456419 5.1590762 -1.7949929
7.5154653 2.6569366 -1.8887416
6.8306594 2.3706713 -1.8928013
12.321647 4.1514778 -1.827343
17.991796 6.0618968 -1.7712636
9.5809269 3.2280593 -1.9048448
8.5470495 2.8531735 -1.9152827
10.680619 3.4291737 -1.8429862
14.804368 4.5657406 -1.8117187
18.243851 5.5150981 -1.7781376
7.7091393 2.2806253 -1.9048808
12.668171 3.4703717 -1.8459922
15.149446 4.0564523 -1.8340197
18.690252 4.4836907 -1.7931861
9.8694105 2.3676183 -1.9122509
11.053658 2.619087 -1.8663315
7.1258588 1.6202645 -1.9130614
15.40783 3.4638333 -1.8467962
8.8714457 1.9943889 -1.9327472
18.85087 4.0653791 -1.799131
19.043812 3.6465795 -1.8089777
13.046 2.4579935 -1.8657548
6.0146775 1.1147559 -1.9087815
7.9908953 1.4810266 -1.9256312
8.9682875 1.6362817 -1.9377372
6.5528889 1.17669 -1.9090644
11.31155 1.9599491 -1.8861103
19.207161 3.3280191 -1.8186384
10.052707 1.7418298 -1.9222493
15.707068 2.6284592 -1.8623604
15.861762 2.2800603 -1.8739755
8.0932388 1.1158332 -1.9357759
9.0444736 1.246982 -1.940648
13.275542 1.750116 -1.8818988
11.527228 1.4194566 -1.9081587
19.581984 2.3488722 -1.8400036
16.026077 1.8287765 -1.8862876
10.192246 1.101833 -1.9315068
7.3139544 0.749376 -1.924711
13.409173 1.3360503 -1.8938677
21.040188 2.0963819 -1.4785582
19.830214 1.7977136 -1.8576531
20.985046 1.9024053 -0.98263091
9.1356058 0.82819092 -1.949796
16.125843 1.413669 -1.8930241
21.07749 1.7291845 -0.49100119
6.17413 0.48916638 -1.9326115
13.570832 0.95373029 -1.9119602
10.253855 0.72061998 -1.9366909
21.035908 1.1724029 -1.4732567
5.8211956 -0.38562292 -1.9712805
3.6875818 -0.29734358 -1.967086
13.978493 -1.4149538 -1.9745882
11.974187 -1.2437487 -1.9778705
7.5397067 -1.0287899 -1.9920758
10.453632 -1.4542806 -1.9885336
8.3835516 -1.2439562 -2.0081713
6.8465009 -1.0770309 -1.9873455
9.3234186 -1.5468259 -2.0088429
10.424547 -1.8850651 -1.9959397
6.2409382 -1.2617948 -1.9868248
13.913618 -2.9371321 -1.9985259
7.5378404 -1.6118451 -2.0179076
11.874579 -2.6869431 -2.0002429
5.7843685 -1.3258598 -2.0052128
6.8323355 -1.5660688 -2.0099478
10.380635 -2.5362849 -2.013344
13.890345 -3.4375126 -2.0110514
8.3305616 -2.0878558 -2.0349162
11.834765 -3.1844027 -2.0135369
5.2522478 -3.0140803 -2.0461876
5.0811715 -3.4687402 -2.0788398
3.7538064 -2.659811 -2.0483258
4.8220801 -3.8784375 -2.0910041
6.9762516 -5.6472411 -2.1266787
7.5259137 -6.5768466 -2.1244419
5.4656191 -4.9455013 -2.1135874
6.6751494 -6.11022 -2.1442013
4.9491835 -4.5829945 -2.1047831
8.4434214 -7.8186941 -2.1681314
9.8497887 -9.1786509 -2.2119725
11.634823 -10.964101 -2.2468107
4.5408888 -4.2791171 -2.1082904
7.2662878 -6.8882217 -2.1281841
9.6079235 -9.5410805 -2.224618
5.8159332 -5.8403459 -2.1577024
5.220356 -5.3067107 -2.1345358
11.267008 -11.586119 -2.2713053
13.674431 -14.061727 -2.2937441
6.324636 -6.5402079 -2.1557293
7.0594444 -7.3000622 -2.1585395
3.7037454 -3.8974802 -2.0995016
8.0000525 -8.5700045 -2.2088647
11.00699 -11.995198 -2.2880058
13.2611 -14.707282 -2.3158128
6.0883732 -6.828639 -2.1677184
9.0626354 -10.290398 -2.2528269
7.7711902 -8.9271364 -2.2299719
5.3948593 -6.3054185 -2.1723907
12.854872 -15.292717 -2.3362553
10.494319 -12.55997 -2.3002532
3.7223306 -4.4550166 -2.1130004
8.7984743 -10.586531 -2.2615814
5.8601403 -7.096293 -2.1806297
4.7459469 -5.8170319 -2.1527278
4.3048182 -5.3065329 -2.1321876
7.4760833 -9.2718315 -2.2440436
12.495292 -15.770789 -2.3529811
3.8888772 -4.9685917 -2.131979
10.043374 -13.140942 -2.3244693
5.0566969 -6.6162782 -2.1799886
6.3138757 -8.2611952 -2.2101014
7.2086382 -9.5453711 -2.2536714
12.129454 -16.160789 -2.3629701
5.5630455 -7.4119744 -2.1958466
8.3038177 -11.19334 -2.2897904
9.7772522 -13.506743 -2.3433969
