# .PCD v0.7 - Point Cloud Data file format
VERSION 0.7
FIELDS x y z
SIZE 4 4 4
TYPE F F F
COUNT 1 1 1
WIDTH 658
HEIGHT 1
VIEWPOINT 0 0 0 1 0 0 0
POINTS 658
DATA ascii
3.41752 -7.7632298 -2.2205088
6.9969759 -16.023066 -2.4572403
4.8683882 -11.239416 -2.3077359
4.1696305 -9.7850256 -2.2608318
3.6094906 -8.7486124 -2.2424197
5.4483094 -13.424287 -2.3802536
4.2699814 -11.561857 -2.3221776
5.8588991 -16.462788 -2.4558487
4.5900574 -13.89532 -2.4042475
6.8868608 -20.848351 -2.5676274
3.9881706 -14.112697 -2.4094353
4.7927141 -17.154015 -2.5031674
3.2445984 -12.016675 -2.3451366
-3.0434215 -10.863705 -2.3980536
-3.5471761 -10.83339 -2.423003
-3.4048891 -9.4574451 -2.3816776
-6.7692122 -17.652822 -2.657093
-4.3337321 -10.577247 -2.4296563
-10.991305 -14.799805 -2.5908468
-9.3409166 -12.495351 -2.5631256
-13.933779 -18.544569 -2.7125838
-11.383505 -14.517925 -2.5927951
-14.361366 -18.106546 -2.7025948
-9.7321119 -12.11729 -2.5533984
-7.1024628 -8.7958946 -2.4030435
-6.4769492 -7.6943512 -2.3830607
-8.5751905 -10.186975 -2.508811
-15.042487 -17.662367 -2.7130482
-12.048681 -13.821396 -2.5769293
-7.438899 -8.479455 -2.3976378
-15.361758 -17.308447 -2.7063115
-10.335157 -11.506597 -2.5410771
-8.8842487 -9.8392954 -2.4977019
-6.7073717 -7.3816543 -2.3632329
-12.330874 -13.489843 -2.568579
-7.7059913 -8.0949192 -2.3755991
-10.733338 -10.888062 -2.5118954
-12.83194 -13.016914 -2.5688572
-16.311707 -16.363028 -2.7018976
-7.0775733 -7.0578375 -2.368305
-9.2993441 -9.2734127 -2.4743726
-8.1515951 -7.7599473 -2.3922322
-11.055176 -10.458016 -2.5002229
-9.466238 -8.9549065 -2.455117
-6.5287304 -6.1394711 -2.3461215
-13.580014 -12.478716 -2.59196
-7.3482614 -6.7122383 -2.3581605
-10.335173 -7.9104161 -2.4521544
-12.093853 -9.037487 -2.4804442
-9.2098951 -6.5499725 -2.4022119
-10.481558 -7.4131198 -2.4188273
-9.4007683 -6.2057323 -2.3943112
-10.783915 -6.6343088 -2.3854997
-15.488426 -9.3469048 -2.5424144
-6.7243991 -3.978384 -2.2403805
-15.709798 -8.9898062 -2.5438063
-8.443862 -4.8319321 -2.3051317
-5.6898351 -3.2335896 -2.2113681
-7.6126122 -4.2093239 -2.2772369
-13.049309 -7.1679859 -2.4460745
-6.2417769 -3.3805499 -2.2149968
-10.95547 -5.8915148 -2.3436553
-9.7311363 -5.2003107 -2.3452442
-5.4101696 -2.8512537 -2.225867
-6.9272852 -3.5969024 -2.2381756
-5.8471651 -2.8885803 -2.2036853
-4.0812297 -1.9703078 -2.1451459
-7.1925764 -3.1963284 -2.2569189
-6.5796509 -2.8992281 -2.2435927
-7.321125 -2.8529167 -2.2530599
-13.834856 -5.2056947 -2.4285655
-6.063158 -2.2814078 -2.1889598
-9.2151232 -3.2849851 -2.3180432
-11.518838 -4.1062078 -2.3040328
-7.3853021 -2.3229108 -2.2199836
-9.2971144 -2.9242361 -2.3092818
-5.6733022 -1.7496721 -2.1608832
-8.1364584 -2.4844611 -2.2270932
-6.7923884 -2.0287724 -2.212018
-20.39682 -5.9721804 -2.4853928
-6.2003007 -1.734656 -2.1755152
-16.554865 -4.5817385 -2.4140968
-13.824541 -3.6113312 -2.3475053
-8.2074814 -2.1180143 -2.2189891
-10.41642 -2.6880507 -2.286613
-7.453021 -1.9025229 -2.2056503
-9.3063946 -2.3168967 -2.2723925
-11.662554 -2.9034803 -2.2644103
-5.8295393 -1.3084 -2.1745641
-5.4701486 -0.51130241 -2.1453328
-4.4297867 -0.29733214 -2.1015069
-3.4923654 -0.21482593 -2.0750573
-13.825297 -0.72697389 -2.2745509
-7.4905901 -0.32966688 -2.1499715
-9.2545567 -0.40730044 -2.1949244
-6.8888783 -0.14189641 -2.1500602
-10.335522 0.17860028 -2.197211
-7.4119711 0.27566901 -2.1268179
-16.229265 0.70007318 -2.2829957
-6.310463 0.28986564 -2.1345401
-13.543841 0.70505953 -2.2281845
-10.251897 0.6503824 -2.1834888
-19.527384 1.3004285 -2.2886333
-11.561945 0.83485329 -2.1840541
-6.6924553 0.52200627 -2.0946553
-8.9423208 0.7241925 -2.1257565
-16.027527 1.3458697 -2.2604496
-19.399557 1.7381892 -2.2777152
-7.368156 0.68352312 -2.1218565
-13.288555 1.3498014 -2.1944635
-6.1943984 0.64668417 -2.104449
-19.151892 2.1719241 -2.2540205
-11.510853 1.3359236 -2.1833136
-10.118658 1.2065778 -2.1660242
-8.0180979 0.98023659 -2.1146495
-15.722109 1.9638654 -2.2267697
-13.200552 1.8481694 -2.189924
-18.916744 2.9250841 -2.2384565
-7.2450991 1.1656653 -2.1042156
-15.502051 2.5330038 -2.2075639
-8.7686872 1.4862608 -2.107312
-11.359277 1.9253563 -2.1707234
-13.022404 2.4041548 -2.1756575
-6.0742569 1.12141 -2.0871627
-6.5862093 1.215925 -2.0898893
-18.712772 3.505383 -2.2263768
-9.8860598 1.9718403 -2.1427381
-15.253322 3.0894632 -2.1872447
-18.51679 3.9764168 -2.2147617
-12.80227 2.9062545 -2.1568515
-18.240393 4.5850549 -2.1994298
-8.5763512 2.155822 -2.0953228
-9.6977015 2.4665046 -2.1269369
-11.036277 2.8069568 -2.1455426
-12.603553 3.3653243 -2.1432333
-14.800904 3.9520476 -2.153008
-18.026527 4.9754858 -2.1868856
-7.02003 1.9375921 -2.0882287
-7.7101736 2.128078 -2.093883
-6.2512031 1.9638027 -2.0446124
-9.4587479 2.9714465 -2.107393
-12.290833 3.9012415 -2.1185911
-17.636774 5.5981007 -2.1638877
-14.384049 4.6126747 -2.1229467
-10.703476 3.5336163 -2.1236947
-8.3328161 2.805922 -2.0833337
-17.256241 5.9755054 -2.1355469
-5.7777758 2.0007329 -2.066035
-9.2755318 3.3028653 -2.0928395
-13.986525 5.1183395 -2.0931637
-16.937922 6.2520876 -2.1113875
-7.388206 2.8020897 -2.0685577
-20.961603 8.1557312 -2.098429
-6.0394831 2.491761 -2.0386548
-6.6343093 2.7371733 -2.0579088
-8.0374346 3.3984523 -2.0676556
-16.355125 7.0267148 -2.0816529
-11.666163 5.0532351 -2.0887609
-20.311583 9.0815554 -2.0757632
-10.090819 4.5117283 -2.0825908
-11.410567 5.4205737 -2.0754671
-15.929739 7.5674005 -2.062372
-13.185495 6.3117743 -2.0544736
-6.3908472 3.0839534 -2.034755
-7.0395865 3.4197557 -2.048804
-9.8823328 4.8007312 -2.0700004
-19.883902 9.736722 -2.0655453
-5.4158444 2.6707995 -2.0404255
-8.6358852 4.2587485 -2.0466828
-15.629568 7.8779526 -2.0468078
-13.004015 6.6516256 -2.0528035
-11.092405 5.8359962 -2.0592549
-19.346432 10.247727 -2.0425081
-15.344033 8.1826258 -2.0335667
-12.658911 7.0864253 -2.0388861
-18.918892 10.664596 -2.026159
-8.3172855 4.7498698 -2.0358715
-9.3422441 5.4460473 -2.0374138
-6.6544633 3.9057097 -2.0199335
-14.78284 8.7355862 -2.0080132
-18.286064 11.240864 -2.0025644
-10.526302 6.5087914 -2.0333157
-7.2499604 4.4829111 -2.0196993
-14.434454 8.9881496 -1.9885001
-5.4458728 3.4334328 -2.0088675
-11.999124 7.7121749 -2.0046494
-17.665474 11.648234 -1.9741396
-4.9795265 3.3246987 -2.0231392
-17.364199 11.889511 -1.9633641
-8.7173882 6.0813322 -2.0026052
-17.074514 12.13422 -1.9542606
-11.437016 8.2759752 -1.9840518
-5.1490989 3.7713327 -1.9915906
-7.5519223 5.5312223 -1.9897151
-13.378052 9.8595457 -1.9434335
-16.732464 12.331728 -1.9392122
-5.641098 4.1574559 -2.0093966
-4.6908975 3.5851653 -1.994969
-16.342491 12.640027 -1.9275079
-13.066984 10.165042 -1.936
-6.0062246 4.6723504 -1.9920758
-9.4363165 7.4309831 -1.9733311
-11.02108 8.6789646 -1.9715263
-16.025894 12.922031 -1.9206338
-8.1617002 6.6233783 -1.9803869
-12.725497 10.449119 -1.9255464
-10.750543 8.9284391 -1.964011
-9.1017466 7.6942954 -1.9580919
-7.0418115 5.9909329 -1.9651815
-6.3654728 5.4771023 -1.9897265
-12.391285 10.722316 -1.9162544
-4.7742572 4.1810174 -1.9802715
-7.7140822 6.9971533 -1.962242
-11.999804 10.953489 -1.8999933
-14.864051 13.634715 -1.8818051
-8.6886101 8.0683012 -1.9480402
-10.092369 9.4211721 -1.9403515
-5.4387379 5.2889423 -1.9859979
-7.3861361 7.1827044 -1.9411347
-11.547016 11.35911 -1.8941857
-9.7149801 9.6137743 -1.9208673
-14.143199 13.995863 -1.8563526
-5.8551984 5.8307214 -1.9579095
-6.4280663 6.475359 -1.9394003
-7.0681868 7.4145484 -1.9300256
-13.576465 14.316607 -1.8407469
-11.05958 11.736142 -1.8858228
-8.0185814 8.5568628 -1.9266404
-6.1380658 6.703218 -1.9319156
-13.250608 14.562227 -1.8368452
-4.9505591 5.5995245 -1.9566207
-7.6034522 8.8055782 -1.911401
-8.812171 10.205399 -1.894981
-4.0628395 4.760335 -1.9528669
-6.5990415 7.7319441 -1.9152135
-12.649366 14.905071 -1.8238404
-10.300626 12.210739 -1.868168
-4.2645292 5.1476068 -1.9167824
-5.2120199 6.2912993 -1.9357759
-8.4096785 10.455791 -1.8857956
-9.9166651 12.400174 -1.8567852
-3.5586069 4.4785924 -1.9328663
-7.1590066 9.0551205 -1.896486
-11.95082 15.301855 -1.8113928
-4.5006361 5.835763 -1.9292696
-6.1590271 8.032402 -1.9070667
-5.4285793 7.2065825 -1.9177775
-9.3583794 12.651736 -1.8402917
-11.46242 15.587086 -1.8050762
-4.7609076 6.5552292 -1.9196366
-7.781415 10.785219 -1.8690948
-6.6282315 9.2958632 -1.8757346
-3.8685491 5.4255052 -1.9107182
-10.993122 15.805252 -1.7961586
-8.8548918 12.883949 -1.8282121
-5.619081 8.3337679 -1.8937358
-6.2194986 9.5152626 -1.8676285
-3.9537389 6.088223 -1.9003989
-10.359488 16.05015 -1.7822248
-8.3383856 13.174748 -1.8233337
-5.277596 8.4986315 -1.8848485
-4.6252818 7.5477705 -1.881601
-9.7922468 16.181664 -1.7645752
-8.0129499 13.335794 -1.8193846
-6.7101679 11.238553 -1.8395902
-4.0543866 6.8337965 -1.8827472
-5.7171974 9.7681494 -1.8595225
-2.955209 5.0816345 -1.8343128
-3.2416003 5.5740995 -1.8489754
-9.318964 16.351133 -1.7558435
-7.5427589 13.507239 -1.8091635
-6.3133345 11.380188 -1.829013
-4.6593466 8.6969252 -1.8589272
-5.2477803 9.9322758 -1.8455801
-3.6324136 6.9246011 -1.8527744
-3.1973593 6.1815243 -1.8218908
-6.945612 13.625646 -1.7884885
-8.4533138 16.705713 -1.7467401
-5.8267741 11.590288 -1.8231677
-10.365178 21.24234 -1.6528099
-4.1820521 8.8232737 -1.8396714
-4.6791344 10.029856 -1.8183439
-6.4381409 13.800335 -1.7808226
-7.7632384 16.886244 -1.7339209
-2.6292014 5.7189198 -1.8048735
-9.398859 21.58498 -1.6462528
-4.2558599 10.09468 -1.799862
-4.9511461 11.836082 -1.8031268
-2.7660027 6.6123347 -1.6982996
-2.8784354 6.9939938 -0.70560718
-2.7951136 6.9077296 0.52108085
-2.776907 6.9217348 0.17315255
-2.7951775 7.0239697 -1.0624475
-4.570756 11.894805 -1.7908796
-2.3575718 6.3460994 -1.7722535
-3.6682632 10.144526 -1.7723016
-4.1686645 11.964039 -1.7805808
-4.8862233 14.158505 -1.7515527
-5.8480611 17.26741 -1.7008516
-7.4392953 21.965803 -1.6216985
-3.7521996 11.750116 0.28637481
-2.1784809 7.1033096 -0.51954621
-1.924554 6.4764204 -1.7687081
-2.0799546 7.0716391 -1.2110404
-2.1264541 7.2297325 -0.174963
-2.4119437 9.4075279 -1.5955901
-1.7603207 7.2047186 -1.7573228
-2.2617393 9.3775492 -0.67454505
-2.1696894 9.2360191 -0.22027047
-2.1836658 9.4060488 -1.1292171
-2.6172063 11.737567 -1.6901183
-1.3103237 6.0502615 -1.7751048
-1.4107703 6.5975022 -1.7661756
-2.40132 11.729483 0.83721721
-2.3998799 11.722449 1.9658735
-1.8334 8.9554224 -1.7222848
-3.1250248 16.763153 -1.5908675
-2.4869235 13.794095 -1.6391187
-1.4202647 7.9894562 -1.7248355
-3.420969 21.42967 -1.5174824
-1.5977753 10.203201 -1.6967535
-2.6344116 16.823036 -1.5886381
-1.2978446 8.9731102 -1.7082134
-2.973974 21.377424 -1.5092511
-1.3957916 11.79298 -1.6689639
-0.77998567 7.3226814 -1.7448727
-2.2098486 21.311415 -1.4982295
-0.63571584 6.1307383 -1.7673868
-1.6970785 16.883236 -1.5830646
-0.87473762 10.161686 -1.6756778
-1.1932614 13.861925 -1.6270391
-0.74264359 8.9374094 -1.6896981
-1.3508092 16.862522 -1.5782342
-0.59648776 8.045681 -1.7148558
-1.2583963 21.118881 -1.4793953
-0.76200783 16.845549 -1.573218
-0.39467093 11.712185 -1.6469746
-0.27567384 8.9207134 -1.6815515
-0.58475351 21.066425 -1.4736753
-0.15241024 6.1482639 -1.7635279
-0.074416876 10.151628 -1.6678959
-0.036709413 8.0891981 -1.7194299
-0.024049178 13.780075 -1.6114749
-0.029394347 16.842833 -1.5713601
0.33741784 21.478893 -1.5021359
0.36256748 16.886759 -1.5758189
0.14506991 6.7567029 -1.7692146
0.71599323 21.583395 -1.5100881
0.49280563 11.758023 -1.6539333
0.57538503 13.728314 -1.6068288
0.56730318 11.941048 1.6800978
0.60435253 11.971485 0.83819377
0.37050191 7.3391905 -1.7411838
0.55877036 9.4052105 -1.1018056
0.55801296 9.3924627 -0.65794307
0.36496988 6.1431656 -1.7646304
0.53641587 9.0289412 -1.7041399
0.50374448 7.1146975 -1.343834
0.52730864 7.1294818 -0.66696417
0.92411488 12.037459 0.56300735
0.79228336 8.1388426 -1.7381419
1.1889963 11.849461 -1.6736959
2.579493 21.378361 -1.5057632
1.2924858 9.1386652 -1.7389486
1.7608434 11.740017 -1.6684073
1.8129616 12.087503 -0.28377521
1.9061353 12.186263 -1.1507454
1.826869 10.329064 -1.7233411
2.1218214 11.780807 -1.6823245
2.6288612 13.70303 -1.631685
4.0518365 21.120337 -1.50381
3.2719522 16.785818 -1.595512
1.5820981 8.1165037 -1.7576857
1.5786326 7.1031432 -1.1954768
1.6785872 6.9810948 -0.16669993
1.6768154 6.9737258 0.50154907
1.3703817 5.630074 -1.8080997
1.9804331 8.0265942 -1.7572699
2.5341816 10.133902 -1.7162079
2.9068832 11.624292 -1.6839947
1.6733726 6.0917587 -1.8114889
1.9861923 7.2305498 -1.7766899
5.7878971 20.618748 -1.4975319
3.3453505 11.522272 -1.6862214
4.8058553 16.371086 -1.5917964
2.9736059 10.032303 -1.719126
1.9552189 6.5964856 -1.8011243
4.0732818 13.448936 -1.6433002
6.5341969 20.486691 -1.5036706
2.8633587 8.807292 -1.7448735
2.6264822 7.8451881 -1.7585171
6.8897429 20.378296 -1.5042286
2.4195406 7.0911293 -1.7753065
5.6384044 16.073786 -1.5891955
3.5940197 9.8691444 -1.7256109
4.8931603 13.206693 -1.647017
6.0092378 15.928217 -1.5882665
4.2740712 11.227952 -1.6884482
3.3315432 8.6789703 -1.7515389
2.1091335 5.4461322 -1.8223978
2.78057 7.0014863 -1.7849901
5.3503442 13.019594 -1.6460878
8.1735172 19.88954 -1.5036706
2.4759223 5.8329053 -1.8170016
4.7347956 11.063117 -1.6912316
4.2458549 9.6175423 -1.7272321
7.1277051 15.532439 -1.5943974
5.1547728 10.90008 -1.6945719
3.5678566 7.5444489 -1.7739028
6.0631628 12.723116 -1.6481785
9.3549032 19.481556 -1.5112042
4.5754013 9.4520512 -1.7252866
4.144567 8.3236313 -1.7519093
7.8056445 15.326062 -1.6046153
3.448956 6.771883 -1.800668
6.4562354 12.584077 -1.6539861
9.908742 19.313478 -1.5179008
5.629015 10.671866 -1.6956853
10.320855 19.159906 -1.5218073
3.3327906 6.1051636 -1.8208779
4.047576 7.3050265 -1.7751501
5.1465015 9.2350588 -1.7369593
4.5807586 8.1030722 -1.7537607
8.4924631 14.931221 -1.6025718
7.1131878 12.330356 -1.6646719
3.1827316 5.5171061 -1.8263732
3.8013816 6.5895047 -1.8025125
11.06298 18.803724 -1.5255741
8.9420748 14.701349 -1.6053586
7.5560117 12.106241 -1.6688534
5.621213 8.9540348 -1.7369593
6.4656644 10.299163 -1.7090459
9.3479147 14.51069 -1.6103747
11.906938 18.48304 -1.5374327
5.162478 7.8114953 -1.7641294
3.8597677 5.8050213 -1.82493
4.7021046 6.9397621 -1.7818034
8.0713921 11.841091 -1.6758224
6.0547376 8.7148781 -1.7434442
7.0464802 10.022413 -1.7218498
10.05516 14.12287 -1.6174345
13.030251 17.862396 -1.5460825
3.8368008 5.1008644 -1.8302321
3.6095428 4.7433538 -1.85993
8.7999039 11.352952 -1.6797715
7.5758166 9.7140713 -1.7313135
10.725298 13.752485 -1.6270952
5.788372 7.4221249 -1.7733868
13.738718 17.414982 -1.551105
4.7726226 5.9764228 -1.812196
6.7090259 8.3056831 -1.7541442
9.1420794 11.117875 -1.683256
14.312992 17.099945 -1.5593363
5.4731445 6.4241066 -1.7938622
11.455677 13.360855 -1.641958
14.769343 16.930412 -1.5710553
7.0892973 8.0809574 -1.7661409
4.6488419 5.2361155 -1.8330339
8.260252 9.2483311 -1.7427256
9.6307344 10.782748 -1.6906897
11.892677 13.161884 -1.6549628
5.1867633 5.6762533 -1.8218795
6.4123783 6.9758525 -1.7852366
4.3910723 4.6956868 -1.8434627
7.4062243 7.8702989 -1.775544
8.5462627 9.0311098 -1.7474576
10.153869 10.419606 -1.7013755
5.9373188 6.060874 -1.8034263
16.058264 16.295437 -1.599795
12.57986 12.619444 -1.6623942
8.8296709 8.80198 -1.7521894
4.2132497 4.200036 -1.8563555
16.370085 16.036377 -1.6024458
6.8919358 6.5196576 -1.7874584
9.1256657 8.5845699 -1.7608182
13.12383 12.208225 -1.6722407
10.754967 9.8862314 -1.7083446
16.915606 15.456903 -1.6023062
5.2019 4.7533188 -1.8446835
6.2996192 5.7241802 -1.8092477
5.7600007 5.2045631 -1.839402
8.1531363 7.3231001 -1.8005106
4.53439 3.9098415 -1.8682705
13.71363 11.754003 -1.6850599
9.5564728 8.1389523 -1.7641584
17.534266 14.859614 -1.6071892
7.3171072 6.2009668 -1.8070846
6.5558901 5.4563527 -1.8129901
17.817499 14.651083 -1.6130487
8.5307894 6.9327865 -1.8060226
5.4992476 4.4151912 -1.8462031
5.060782 3.9710114 -1.8445653
7.6945567 5.9277496 -1.8300434
11.881875 8.8823147 -1.7348269
4.8153353 3.5997117 -1.8760153
10.098426 7.5024934 -1.7680552
14.763606 10.968429 -1.7158999
6.2450399 4.5289669 -1.8278741
7.9887509 5.68571 -1.8474478
15.052997 10.65418 -1.7205446
19.176609 13.487552 -1.6394166
10.399185 7.268075 -1.7830858
7.0713549 4.9422274 -1.8337814
9.2196341 6.2116985 -1.8264499
15.754886 9.9598284 -1.7389373
5.1092343 3.2299252 -1.886143
10.86378 6.7805367 -1.7997866
12.728069 7.9441166 -1.7545726
6.0831938 3.7702723 -1.8735541
7.4411235 4.6118965 -1.8608099
8.4560022 5.208271 -1.8711473
6.7788582 3.9866822 -1.8633802
11.088472 6.4381099 -1.8020135
13.018212 7.5585423 -1.7603801
16.255125 9.4379358 -1.7536141
9.6904745 5.5520325 -1.8348802
5.7327695 3.1960638 -1.8820521
6.2877941 3.4825153 -1.8816582
7.7811704 4.2494836 -1.8845117
8.8606901 4.6736898 -1.8874406
9.9059868 5.1875377 -1.8371499
11.527851 5.8712068 -1.8181576
13.638687 6.9462686 -1.7898824
16.920702 8.4289789 -1.7636464
5.4573011 2.6605256 -1.8944834
7.1406703 3.4811964 -1.8822861
8.0779734 3.8807228 -1.9048871
14.00964 6.5298295 -1.8075372
6.5672278 3.0386622 -1.8943208
17.297865 7.8830872 -1.7734929
14.237712 6.1877851 -1.8154355
12.019028 5.1439176 -1.8373635
7.3706822 3.1013787 -1.8947362
10.400108 4.3440661 -1.8517407
17.778662 7.2408605 -1.7909566
9.38517 3.8223743 -1.9092885
5.6699142 2.2907944 -1.9081857
20.563652 8.1666441 -1.031823
6.2728066 2.3266091 -1.9184362
14.688698 5.3985686 -1.8300705
20.64208 7.586628 -1.0255808
7.5605102 2.7787304 -1.9085698
12.374709 4.5089211 -1.8510023
18.392109 6.2146578 -1.8112072
9.6871815 3.24505 -1.9248414
10.838896 3.5615544 -1.8744375
8.6681938 2.8482833 -1.9394003
6.984643 2.2707953 -1.922685
12.671738 3.9978149 -1.8674247
18.795795 5.517653 -1.8275561
15.321393 4.4454765 -1.8656126
11.04565 3.1714642 -1.8880557
8.8287392 2.4534066 -1.9477168
9.8877707 2.6845953 -1.9303958
12.984081 3.4475167 -1.8880224
19.226749 4.8044581 -1.8489213
7.952517 1.9872072 -1.9422315
5.9879293 1.4419988 -1.9218879
15.755529 3.556438 -1.8888428
19.391783 4.3772359 -1.8546805
13.17537 2.9305608 -1.8969296
11.330349 2.451782 -1.9045919
9.0377054 1.8732674 -1.9618549
15.902229 3.1516178 -1.8958118
6.6042252 1.3088726 -1.9305642
19.615362 3.8270562 -1.864527
8.1306696 1.4409753 -1.956526
16.043507 2.7942684 -1.9044069
19.824184 3.4527423 -1.8773462
11.533127 1.9403347 -1.9214524
7.3262658 1.2115451 -1.9439582
10.253771 1.6350449 -1.9563173
20.004827 3.1291051 -1.8890505
9.1446295 1.4009602 -1.9664289
6.1573906 0.85440922 -1.9397604
20.390932 2.4098246 -1.9156177
6.7529702 0.79807407 -1.9498588
10.34462 1.1895962 -1.9618717
13.705354 1.493718 -1.9375681
11.784676 1.2531793 -1.9470675
20.555153 2.0009668 -1.9267646
9.2603664 0.90146178 -1.9776561
20.979397 1.920352 -0.98244452
8.3395662 0.73841619 -1.983732
16.58963 1.3755858 -1.9466858
6.2470546 0.4620446 -1.9546542
21.0194 1.495634 -1.4735358
20.992159 1.4347827 -0.98123342
13.958736 0.91245973 -1.9659593
5.9199162 -0.48878613 -2.0071335
12.285336 -1.3042495 -2.0297489
3.7210219 -0.3950353 -1.9896207
7.6709447 -0.81437141 -2.0194271
9.5107412 -1.0651196 -2.0342081
14.42396 -1.661256 -2.0405562
6.9798059 -1.0705539 -2.024832
7.6784339 -1.1777086 -2.0336092
8.5307379 -1.4107249 -2.0487499
9.4703627 -1.5932924 -2.0412772
6.3456278 -1.0858179 -2.0088675
5.917398 -1.0839107 -2.032743
6.9658427 -1.5060685 -2.0435755
7.6716795 -1.7063904 -2.0574148
9.473465 -2.1349375 -2.0641475
8.5001497 -1.9655395 -2.0671947
10.625618 -2.4922159 -2.0562994
14.326189 -3.4050536 -2.0695043
12.151553 -2.957736 -2.0547156
5.8819098 -1.6699579 -2.066035
5.390605 -1.9099722 -2.0815346
5.3305092 -3.0528114 -2.0756385
5.0824633 -3.5733404 -2.0993271
5.3136792 -4.1919756 -2.111932
7.9528337 -6.2740116 -2.1531339
7.7743692 -6.6634398 -2.1764197
4.6771703 -4.152586 -2.1134124
6.2237573 -5.5588202 -2.1845469
8.7020903 -7.9991794 -2.2270095
7.5173039 -6.9952955 -2.182657
10.150276 -9.6053514 -2.2959509
12.004553 -11.36008 -2.3227992
6.6973162 -6.3377662 -2.1847799
4.954989 -4.746686 -2.1411238
11.847664 -11.679305 -2.3381083
14.549747 -14.342991 -2.38922
7.3104997 -7.3745751 -2.2071908
8.4169521 -8.4907265 -2.2525606
14.331507 -14.619534 -2.3940983
3.7270143 -3.9164867 -2.1111414
11.604336 -12.266952 -2.3731799
4.3206835 -4.6447296 -2.1435032
5.168817 -5.5896368 -2.183048
8.1930962 -8.8601379 -2.2736678
9.5478888 -10.448944 -2.3254569
11.267752 -12.544894 -2.3698397
7.0421014 -7.8402877 -2.2400408
13.736794 -15.385369 -2.4119854
5.5543451 -6.3670645 -2.2118981
3.8685246 -4.513485 -2.1636193
13.415357 -15.841251 -2.4275498
10.931561 -12.981645 -2.3851488
6.0244932 -7.1975513 -2.2239749
9.0582123 -11.011964 -2.3426416
4.3925662 -5.3704901 -2.1649537
10.727681 -13.280725 -2.3993447
13.134861 -16.348154 -2.4524059
6.6309371 -8.3064308 -2.2591686
3.9326682 -5.0137148 -2.1531069
4.6852803 -6.0445819 -2.192971
10.484164 -13.609051 -2.4143753
5.171803 -6.7132993 -2.2184827
8.73557 -11.409133 -2.3607991
12.880595 -16.822763 -2.4777267
7.4342842 -9.7095823 -2.3040328
5.687789 -7.5616717 -2.2419586
6.353663 -8.5520954 -2.2645743
10.182789 -13.953855 -2.4277356
8.4023962 -11.732016 -2.3708506
