# .PCD v0.7 - Point Cloud Data file format
VERSION 0.7
FIELDS x y z
SIZE 4 4 4
TYPE F F F
COUNT 1 1 1
WIDTH 82
HEIGHT 1
VIEWPOINT 0 0 0 1 0 0 0
POINTS 82
DATA ascii
25.740999 30.611782 0
25.746393 28.038252 0
25.776602 27.420519 0
25.833899 25.061035 0.83563513
25.864122 23.94206 0.81827343
25.846064 23.378319 0.80912834
25.871119 23.269943 0.80787492
25.784527 22.924799 0
25.803497 22.812956 0
25.842527 22.703224 0.79863709
25.854626 22.58625 0.7970587
25.87771 22.337051 0.79366994
25.892666 22.083189 0.79009551
25.862738 21.809345 0.78545332
25.894243 21.581924 0.78262168
25.878927 21.189198 0.7765404
25.871319 21.062571 0.7745443
25.896139 20.82847 0.77157331
25.870363 20.681633 0.76897371
25.898273 20.585676 0.76809174
25.878843 19.850376 0.75722903
25.887577 19.621281 0.75416517
25.909166 19.509781 0.75300467
25.862707 19.361866 0.75008011
25.827457 18.531582 0
25.929459 16.316008 0.71127164
25.924774 12.8579 0.67185974
25.914454 12.561042 0.66861022
25.9252 11.929759 0.66257542
25.935108 11.666586 0.6602543
25.940136 11.209178 0.65607637
25.889164 10.660175 0
25.894753 10.572735 0
25.956339 10.166959 0.64720982
25.911366 10.06076 0
25.878611 9.7942114 0
25.914314 9.0344658 0
25.903818 8.8688583 0
25.920341 8.7080612 0
25.893276 8.2835283 0
25.911444 8.1201563 0
25.933508 8.0426521 0
25.96307 7.557724 0.62780559
25.920195 7.3933516 0
25.953596 7.1585679 0.62506676
25.945402 6.9957538 0
25.900335 6.9012375 0
25.97064 6.9199705 0.62399906
25.90716 6.8207874 0
25.916189 6.6589656 0
25.954824 6.5916877 0.62172443
25.904804 6.4924273 0
25.965708 6.5076909 0.62149227
25.949713 6.4363241 0
25.919292 6.3424144 0
25.925241 6.2671814 0
25.953239 6.2739496 0.619914
25.91951 6.1796794 0
25.899675 6.0985694 0
25.900318 5.9367247 0
25.954567 5.8824487 0.6178714
25.919409 5.7889223 0
25.959259 5.797823 0.61754644
25.949966 5.7197185 0.616943
25.949381 5.6436558 0
25.957811 5.4843564 0.61596817
25.939665 4.8544793 0
25.963526 4.7745757 0.61290431
26.002232 4.5474792 0.61285788
26.007357 4.4829025 0.61271858
26.009483 4.3991804 0.61244011
25.990862 4.31674 0.61169738
25.98037 4.2451386 0.61118668
25.987652 4.1625547 0.61104745
26.005102 4.0908914 0.61118668
25.991436 4.0097561 0.61058325
26.00915 3.9335225 0.61072248
25.999054 3.7835882 0.60997975
25.997644 3.7092683 0.60970122
25.997284 3.6259236 0.60942268
25.999386 3.5522208 0.60923702
26.025665 3.4771988 0.60960835
