# .PCD v0.7 - Point Cloud Data file format
VERSION 0.7
FIELDS x y z
SIZE 4 4 4
TYPE F F F
COUNT 1 1 1
WIDTH 1557
HEIGHT 1
VIEWPOINT 0 0 0 1 0 0 0
POINTS 1557
DATA ascii
4.5477962 3.8489664 -1.8922352
20.164612 22.607595 -0.72572541
4.7560563 4.0981317 -1.8914057
4.9997039 4.3892565 -1.8960339
5.2867513 4.7319851 -1.9052204
5.6160035 5.1251092 -1.9157277
6.012929 5.5986991 -1.9333371
6.4606686 6.1336622 -1.9421834
7.0093946 6.7889247 -1.958356
7.7548766 7.6776905 -2.0018666
3.511013 2.5968158 -1.8619176
8.5632257 8.5964422 -2.0004244
3.6246142 2.7316785 -1.8656527
9.6036491 9.8330765 -2.0125155
3.7297468 2.8574448 -1.8548968
10.922387 11.40148 -2.013495
3.855247 3.0067899 -1.8537258
13.324265 14.250798 -2.1234503
4.0206399 3.2021489 -1.8738276
16.440626 17.953901 -2.1740184
4.1766043 3.3875065 -1.8759395
20.158766 22.383003 -2.0723476
4.3527951 3.5967188 -1.881045
25.055473 28.225731 -1.7945012
4.5654316 3.8485916 -1.8963391
20.236095 22.565924 -0.72260916
4.7671232 4.0888534 -1.8907801
5.0214195 4.3906226 -1.9009265
5.298347 4.7197952 -1.903843
5.6411519 5.1264014 -1.9204079
6.0319414 5.5902696 -1.9341642
6.4736319 6.115232 -1.9396824
7.0406284 6.7880945 -1.9620386
7.7797451 7.6644893 -2.0019603
3.518322 2.5906522 -1.8615025
8.5959921 8.584218 -2.0012925
3.6334639 2.7264578 -1.8662449
9.6311092 9.8073406 -2.0105467
3.7436004 2.8571253 -1.859387
10.980236 11.401875 -2.0171211
3.8696079 3.0061898 -1.857988
13.388029 14.241164 -2.1252279
4.0261993 3.1904688 -1.8705875
16.507633 17.926027 -2.1732008
4.1898332 3.3834236 -1.8779904
16.348475 17.775564 -1.6128767
4.3690853 3.5948973 -1.8845834
24.965305 27.951683 -1.7756599
4.5703759 3.8323827 -1.8918062
4.781301 4.0817585 -1.8915912
20.215351 22.452896 -0.040437132
5.0414462 4.3884501 -1.9043814
5.3131871 4.709754 -1.9037224
5.6559544 5.1139183 -1.9195672
6.0355392 5.5621338 -1.9276162
6.4888344 6.0973568 -1.9376396
7.061625 6.7729301 -1.9613916
7.7944164 7.6367846 -1.9981259
3.5301337 2.5894935 -1.865364
8.6326027 8.5763264 -2.0033
3.6457367 2.7250369 -1.8699244
9.6752405 9.8009233 -2.0129457
3.7470431 2.8450904 -1.8549677
11.009747 11.369054 -2.0143456
3.876955 2.997648 -1.856553
13.424654 14.199679 -2.1218674
4.0352659 3.1827769 -1.8700703
16.482567 17.790697 -2.1583164
4.1982751 3.373898 -1.8765746
16.391577 17.720686 -1.6088377
4.3769345 3.5834596 -1.8823496
24.899673 27.70878 -1.7589806
4.5850015 3.8272161 -1.8935241
4.7930069 4.0718265 -1.8909234
20.312258 22.433626 -0.036982268
5.0404415 4.3622541 -1.8960165
5.3043079 4.6726537 -1.89123
5.6569147 5.0856171 -1.9120477
6.0465827 5.5426974 -1.9244477
6.5090504 6.0852728 -1.9376665
7.0889559 6.7650318 -1.9631056
7.8320203 7.6356235 -2.0019877
3.5362868 2.5820203 -1.8638774
8.6357069 8.5297995 -1.9953803
3.6465321 2.7108357 -1.8633076
9.7025957 9.7749815 -2.0109682
3.7608991 2.8446856 -1.8594536
11.071558 11.37353 -2.0188205
3.8948574 3.00088 -1.8636564
13.476728 14.176113 -2.1214294
4.0407429 3.1710744 -1.8668298
16.549189 17.762617 -2.1574938
4.205483 3.3630059 -1.8742923
16.433187 17.6642 -1.6046449
4.3895903 3.5774484 -1.883411
24.964342 27.619446 -1.7529416
4.6008482 3.8233719 -1.8960208
20.353554 22.303728 -0.70767641
4.809618 4.0674233 -1.8932067
5.0542216 4.3529568 -1.8959929
5.3390355 4.6852751 -1.9015223
5.6753726 5.0773773 -1.9130269
6.075285 5.5434308 -1.9291531
6.5215988 6.0644026 -1.9345859
7.0945396 6.7321625 -1.9567815
7.8645387 7.628418 -2.004132
3.537436 2.5698981 -1.8581394
8.659133 8.5096874 -1.994032
3.6583409 2.7097354 -1.86701
9.7191133 9.740015 -2.0067348
3.7603035 2.8291655 -1.8520944
11.117217 11.363021 -2.0202048
3.9016833 2.9926994 -1.8622469
13.519809 14.146973 -2.1199055
4.0563793 3.171741 -1.8717848
16.595749 17.7174 -2.1542692
4.2120895 3.3525827 -1.8720421
16.455875 17.59215 -1.5988103
4.3992052 3.5691938 -1.8828577
25.065735 27.582413 -1.7505227
4.6099224 3.8131547 -1.8946468
4.8218355 4.0593829 -1.8933126
5.0535336 4.3288326 -1.8883692
5.3617816 4.6856856 -1.9059957
5.6916971 5.0683856 -1.9134461
6.0980082 5.5390992 -1.9316574
6.5266509 6.0371513 -1.9289788
7.1206541 6.7251091 -1.9585556
7.8983436 7.6251445 -2.0071988
3.5385318 2.5577893 -1.8524026
8.6928806 8.5013018 -1.9957298
3.6643786 2.7022576 -1.8655652
9.7550201 9.7272472 -2.0075343
3.767828 2.8226688 -1.8516594
11.157666 11.346395 -2.0204222
3.9084816 2.9845049 -1.8608376
13.574583 14.131154 -2.1205664
4.0696468 3.1697032 -1.8749222
16.636923 17.666071 -2.1502519
4.2234921 3.3475006 -1.8732537
16.457308 17.496065 -1.5905648
4.4063549 3.5582058 -1.8806566
20.39053 22.053709 -1.3677448
4.6214252 3.8056564 -1.8948339
4.8265867 4.0430026 -1.888991
5.0639896 4.317328 -1.8869985
5.3807812 4.6817732 -1.9085132
5.7118044 5.0636139 -1.9156817
6.1028919 5.5145974 -1.9262899
6.5456843 6.0258231 -1.9290608
7.1583591 6.7310662 -1.9645725
7.9114904 7.5983071 -2.0034297
3.5514512 2.5577612 -1.8573273
8.7111721 8.4724131 -1.992386
3.6708403 2.694375 -1.8640941
9.7808409 9.6996002 -2.0052133
3.7781534 2.818306 -1.8531735
11.190893 11.31754 -2.0184932
3.9193139 2.9797614 -1.8622428
13.646242 14.129397 -2.1237483
4.0774536 3.1605639 -1.8734926
16.657345 17.585075 -2.142509
4.2281742 3.3338847 -1.8692397
16.506041 17.44846 -1.5872813
4.415288 3.5480344 -1.8792437
20.468496 22.012449 -1.3650228
4.6397276 3.8043923 -1.898883
4.8456521 4.0412173 -1.8927423
20.47719 22.112175 -0.021541268
5.0713758 4.3009787 -1.8835021
5.3854227 4.6602092 -1.9031795
5.7251506 5.0494995 -1.9142269
6.1239634 5.5064669 -1.9276105
6.5837283 6.0337238 -1.9363137
7.1805048 6.7169847 -1.9643809
7.9465966 7.5936975 -2.0064106
3.5628171 2.5568099 -1.8612057
8.7474966 8.466754 -1.9948353
3.673336 2.6830885 -1.859563
9.8127623 9.682189 -2.0049973
3.7844696 2.8104808 -1.8517482
11.210261 11.276975 -2.0140724
3.9248762 2.970227 -1.8598837
13.690541 14.101246 -2.1224432
4.0883126 3.1558108 -1.8748127
16.669106 17.500809 -2.1341636
4.2517056 3.3420556 -1.8790978
16.546329 17.397379 -1.5835675
4.4260468 3.5410564 -1.879511
25.111933 27.166668 -1.7222141
4.6462574 3.7913539 -1.8959454
4.8528109 4.0275598 -1.8898951
20.482796 21.995745 -0.017517537
5.0767097 4.2838678 -1.8793546
5.3891811 4.639349 -1.897894
5.7375922 5.0361023 -1.9128212
6.1312551 5.4848061 -1.9233676
6.5937395 6.0121536 -1.9327716
7.2027607 6.7052841 -1.9647242
7.970016 7.5784297 -2.0060494
3.5727363 2.5525937 -1.8628956
8.7631607 8.4320793 -1.9902612
3.6801767 2.6747947 -1.8580657
9.8361502 9.6485138 -2.0015688
3.7928762 2.8030937 -1.8512558
11.278176 11.283157 -2.0192456
3.9385672 2.967572 -1.8631521
13.719839 14.046431 -2.1172085
4.0941796 3.1435382 -1.8715383
16.73152 17.461861 -2.1321511
4.2617822 3.3332012 -1.8785075
20.438007 21.674208 -2.0159118
4.4429088 3.5383704 -1.8829974
25.242979 27.144575 -1.7208784
4.6577449 3.7812605 -1.8952724
4.8625293 4.0140705 -1.8877052
20.524565 21.905788 -0.013303488
5.0783682 4.2599392 -1.8723491
5.4020524 4.6255207 -1.8964158
5.7452993 5.0141058 -1.9082867
6.1622186 5.4857049 -1.9285568
6.6173692 6.001677 -1.9337555
7.2220883 6.6857138 -1.9630445
7.9959979 7.5608006 -2.0055325
3.573709 2.540453 -1.8571593
8.7849941 8.4101572 -1.9885188
3.6954737 2.677295 -1.8648444
9.8574114 9.6191912 -1.9986697
3.8026996 2.7990501 -1.8527932
11.30398 11.249781 -2.0162616
3.9488778 2.9631579 -1.8645817
13.757317 14.010651 -2.1146827
4.1013694 3.1348021 -1.8701376
16.866079 17.515581 -2.14206
4.2707143 3.325305 -1.877982
20.467497 21.586916 -2.0089297
4.4536495 3.5313084 -1.8832604
25.808374 27.628456 -1.7545872
4.6691742 3.7736144 -1.8954531
20.49995 21.712212 -0.67565596
4.8771319 4.008606 -1.8892778
20.515955 21.774593 -0.0091966689
5.0746741 4.2331624 -1.8633517
5.4082055 4.6074591 -1.8924319
5.7653384 5.00911 -1.9105116
6.1797366 5.4753428 -1.9287997
6.646729 6.0015116 -1.9379517
7.2586384 6.6897225 -1.9685632
8.0206547 7.5468292 -2.0055904
3.5792708 2.5332465 -1.8556944
8.8107243 8.3925381 -1.9879137
3.703753 2.6722286 -1.8654522
9.8971024 9.6102877 -2.0004478
3.8113308 2.7937026 -1.8533412
11.349575 11.238374 -2.0176013
3.9531689 2.9522741 -1.8612732
13.809313 13.990984 -2.1148157
4.1146135 3.1325686 -1.8732654
16.983763 17.54944 -2.1493845
4.2808542 3.3187032 -1.8783196
20.515303 21.520395 -2.0040481
4.464375 3.5242116 -1.8835219
20.533478 21.585155 -1.3360044
4.6793365 3.7645793 -1.8948525
20.517275 21.611206 -0.67029619
4.8854246 3.9962575 -1.8871657
20.510761 21.648087 -0.0051396787
5.098824 4.2367916 -1.8696069
5.4168496 4.5921807 -1.8897465
5.7737913 4.9913945 -1.9072872
6.1907563 5.4578409 -1.9262367
6.665709 5.9898086 -1.9380156
7.287405 6.6849532 -1.971248
8.0360851 7.5226526 -2.0026655
3.5848079 2.5260284 -1.8542292
8.8244982 8.3617868 -1.9838897
3.7120209 2.6671376 -1.8660592
9.9155703 9.5779076 -1.9968754
3.8199501 2.7883289 -1.853888
11.396511 11.22827 -2.0192208
3.9634514 2.9478061 -1.8627003
13.817297 13.922599 -2.1069605
4.1217666 3.1237829 -1.871863
17.093744 17.573933 -2.1555042
4.295907 3.3173399 -1.8821117
20.5415 21.430098 -1.9967738
4.4626436 3.5037532 -1.8755628
25.477465 26.954819 -1.708294
4.6919827 3.7582145 -1.8958091
4.9025321 3.9934332 -1.8902069
20.58112 21.606646 -0.0016790926
5.1115456 4.2279334 -1.8696202
5.4331417 4.5852275 -1.8909551
5.7873454 4.9792771 -1.9064828
6.1991124 5.4374962 -1.9225527
6.6807408 5.9737782 -1.9365302
7.3043718 6.6671772 -1.9696926
8.0646124 7.5128746 -2.003994
3.593822 2.5224717 -1.8559655
8.846118 8.3397083 -1.9821426
3.7119999 2.6533165 -1.8594733
9.9432364 9.555686 -1.9956394
3.833344 2.7879777 -1.8583831
11.423441 11.196074 -2.0165133
3.978569 2.9484236 -1.8679124
13.850396 13.882162 -2.1037025
4.1203227 3.105901 -1.864123
4.2986131 3.3027816 -1.8772632
20.592796 21.367887 -1.9923414
4.4708009 3.4939682 -1.8741804
25.784115 27.143785 -1.7215937
4.7008395 3.7477746 -1.8944272
4.9133024 3.9837501 -1.8895651
20.663441 21.578356 0.0017021596
5.1408725 4.2368846 -1.8786367
5.4520001 4.5809913 -1.8934578
5.8021598 4.9685216 -1.9062818
6.2073879 5.4171472 -1.9188696
6.6930985 5.9548712 -1.9340135
7.3107448 6.6379228 -1.9643737
8.0918121 7.5015607 -2.0048923
3.6001558 2.5144627 -1.8544492
8.8665447 8.3106432 -1.9790841
3.7234759 2.6498766 -1.8620807
9.9687958 9.5245924 -1.9928688
3.8440838 2.7829533 -1.8598579
11.466187 11.173423 -2.0161605
3.989841 2.9429789 -1.8692759
13.924405 13.876795 -2.1066685
4.1333423 3.1013386 -1.8662795
17.162004 17.442675 -2.1442633
4.3060865 3.2911584 -1.87494
20.621716 21.266434 -1.9841834
4.4813538 3.4844236 -1.8735486
25.457024 26.61552 -1.685213
4.7109275 3.7361672 -1.892969
4.9215713 3.9687502 -1.886634
20.694071 21.477839 0.005969137
5.1730051 4.2457647 -1.8882514
5.4892282 4.5932331 -1.9042927
5.8212404 4.9589744 -1.9071859
6.2331338 5.4119816 -1.9217962
6.7087417 5.9355121 -1.9318894
7.3377714 6.6265836 -1.9655012
8.113616 7.4792047 -2.0030825
3.605629 2.5071964 -1.8529824
8.8973694 8.2985258 -1.9799851
3.7328825 2.6459568 -1.8637117
9.9909658 9.4964218 -1.9902939
3.846662 2.7712033 -1.8554654
11.470104 11.116343 -2.0085616
3.9976845 2.9358423 -1.8688041
13.969461 13.849218 -2.1055682
4.1551738 3.1079917 -1.8757344
16.243744 16.34869 -2.0016003
4.3223653 3.290978 -1.8795894
20.669811 21.201101 -1.9794515
4.4932179 3.4785593 -1.8746287
25.532122 26.549898 -1.6808792
4.7222509 3.7283549 -1.8931423
4.9271631 3.9536049 -1.8830482
20.739784 21.409208 0.0096235573
5.1986399 4.2503414 -1.8951749
5.4938931 4.5736413 -1.8996552
5.8242655 4.9356036 -1.9015433
6.2557359 5.406991 -1.9242686
6.7368035 5.9334931 -1.9355482
7.3611903 6.615788 -1.9662904
8.128787 7.4548321 -2.0001512
3.6098995 2.4987047 -1.8504492
8.9147825 8.271946 -1.977095
3.7410917 2.6407707 -1.8643149
10.002292 9.4566584 -1.9850544
3.8552332 2.765718 -1.8560075
11.485906 11.072374 -2.0035536
4.001842 2.9248755 -1.8654932
13.996912 13.802577 -2.1013312
4.1548305 3.0913873 -1.8689004
16.288939 16.307335 -1.99887
4.3311791 3.2829132 -1.879057
17.444071 17.591564 -1.6155736
4.4987745 3.4660609 -1.8716015
25.455418 26.319569 -1.665132
4.734827 3.7218423 -1.8940927
4.9467936 3.9532883 -1.887551
20.763628 21.316912 0.01342532
5.2010899 4.230299 -1.8896374
5.4867768 4.5416889 -1.8891884
5.8350458 4.9205718 -1.8995262
6.2770314 5.4005179 -1.9261774
6.7476907 5.9130549 -1.9325129
7.3859253 6.6063313 -1.9675454
8.1438723 7.4304328 -1.9972199
3.6208763 2.4954977 -1.8531971
8.9403191 8.2484417 -1.9755453
3.7453747 2.6298327 -1.8607575
10.04368 9.4426842 -1.9862729
3.867137 2.7618532 -1.8584651
11.539152 11.061028 -2.0054865
4.0093827 2.9155405 -1.8640155
14.019473 13.741332 -2.0951211
4.1690774 3.0879688 -1.8719541
16.537737 16.47331 -2.024174
4.3335571 3.2660146 -1.8732802
16.295641 16.246908 -1.480961
4.5206132 3.4682634 -1.8783532
25.502131 26.205984 -1.657513
4.7486453 3.7141302 -1.8949646
4.9600716 3.943594 -1.8875581
20.80122 21.225227 0.017621726
5.1996984 4.2035284 -1.8812486
5.5110512 4.5399175 -1.8935298
5.8697686 4.9274797 -1.9076682
6.2935643 5.3853006 -1.9251741
6.7445831 5.8738885 -1.9231845
7.3902311 6.5706615 -1.9606816
8.1788349 7.4221601 -1.9996465
3.6235023 2.4861512 -1.849622
8.9696302 8.2373619 -1.9765199
3.7519102 2.6237826 -1.8603591
10.092367 9.4459858 -1.9907724
3.8764477 2.7579737 -1.8600179
11.585347 11.053324 -2.0074706
4.0240417 2.9163744 -1.8692452
14.045543 13.69826 -2.0912704
4.1855111 3.0897672 -1.8778118
16.679762 16.539845 -2.0357447
4.3492889 3.2662005 -1.8779558
16.321341 16.190502 -1.4766227
4.5255375 3.4562502 -1.8753599
4.7516222 3.6988218 -1.890505
4.9739089 3.9383872 -1.8891548
20.839731 21.15687 0.021068066
5.1999512 4.182838 -1.8750683
5.5094938 4.5155754 -1.8863531
5.9020629 4.9365554 -1.9159542
6.3059773 5.3711915 -1.9237775
6.7609286 5.8613911 -1.9227835
7.4177732 6.5663576 -1.9634072
8.196558 7.4030886 -1.9980603
3.6340489 2.4832661 -1.8523922
8.9990549 8.2207022 -1.976561
3.7605019 2.6181281 -1.8609327
10.148453 9.4503555 -1.9960581
3.8854508 2.7519677 -1.8605272
11.635381 11.0419 -2.0092123
4.0285954 2.9049134 -1.8659037
14.108901 13.68539 -2.0928903
4.1942797 3.0816038 -1.8772751
4.3610988 3.2601361 -1.8791119
16.34832 16.12451 -1.4715012
4.5379329 3.4496932 -1.876397
26.58322 27.069275 -1.7178744
4.7673264 3.6942704 -1.8929673
4.9838958 3.9265475 -1.8877295
20.834774 21.027592 0.025268644
5.21456 4.174365 -1.8757159
5.5369201 4.5184784 -1.8926765
5.90309 4.9095473 -1.9090513
6.3228321 5.3581243 -1.9233857
6.7792401 5.8469839 -1.922258
7.456974 6.569706 -1.9692713
8.2167587 7.3816118 -1.9963177
3.6485901 2.4835529 -1.8583318
9.0257874 8.1983519 -1.9753777
3.7634711 2.6059403 -1.8563496
10.18449 9.43011 -1.9959193
3.887557 2.7380772 -1.8550929
11.670964 11.011281 -2.0073934
4.0360613 2.8955052 -1.8644232
14.159619 13.654204 -2.0917132
4.1972837 3.06657 -1.8721873
16.389359 16.034819 -1.9744335
4.3696537 3.2496502 -1.8776456
16.783531 16.484787 -1.5098435
4.5483451 3.4399397 -1.8757564
26.003983 26.287195 -1.6639105
4.7707839 3.675884 -1.8876165
4.9983997 3.9180593 -1.8884655
20.871189 20.935932 0.029447287
5.2442427 4.1799874 -1.8839177
5.552001 4.5069456 -1.8924769
5.9180808 4.8955054 -1.9081291
6.3405643 5.3441458 -1.9229356
6.7971706 5.8301888 -1.9211551
7.4785228 6.5521855 -1.9684969
8.2300415 7.3504214 -1.9919552
3.6495767 2.4709992 -1.8525741
9.0428772 8.1687517 -1.9720143
3.7744427 2.6026759 -1.8589729
10.214767 9.4069967 -1.9948803
3.8940544 2.7295637 -1.8536301
11.696343 10.973761 -2.0039728
4.0479774 2.8915391 -1.8667516
14.214768 13.632245 -2.0918717
4.2059827 3.0583718 -1.8716496
17.646719 17.259636 -2.1418648
4.3788948 3.2409408 -1.8770746
16.82225 16.429108 -1.5058258
4.5581493 3.4307001 -1.8751506
26.206516 26.346088 -1.6682745
4.7812877 3.6659844 -1.8869673
5.0070162 3.9048259 -1.886304
20.939342 20.885443 0.033195823
5.2483668 4.1606274 -1.8790323
5.5596795 4.4893069 -1.889089
5.9242187 4.8739996 -1.9036413
6.3573456 5.3309674 -1.9225391
6.8127084 5.8128886 -1.9195985
7.4975491 6.5342546 -1.967321
8.2622852 7.3415208 -1.9940172
3.6544952 2.4640067 -1.8511291
9.074811 8.1601343 -1.9737262
3.7821221 2.5977626 -1.8595971
10.233536 9.3783369 -1.9920496
3.9094639 2.7317388 -1.8601052
11.738413 10.961164 -2.0050693
4.0576863 2.8871937 -1.8681928
14.230802 13.578748 -2.0863318
4.2136378 3.0511167 -1.8711745
16.816751 16.304688 -2.0164578
4.3895702 3.2357955 -1.8782929
20.894869 20.601845 -1.9325913
4.5654941 3.4212263 -1.8737956
26.527346 26.545647 -1.682376
4.7840586 3.6506658 -1.8825101
5.0142732 3.8928232 -1.8842241
20.934042 20.77198 0.036869377
5.2378545 4.1292191 -1.8673314
5.5631251 4.4703979 -1.8845035
5.9446187 4.870429 -1.9064857
6.3669186 5.3139577 -1.9200212
6.8167753 5.7877283 -1.9145726
7.5183554 6.5225701 -1.9676858
8.3069868 7.3503251 -2.00088
3.6602049 2.4562268 -1.8496331
9.1068163 8.1459122 -1.9745036
3.7857742 2.5871677 -1.856066
10.256811 9.3479815 -1.9893485
3.9122334 2.719485 -1.8556846
11.822824 10.984625 -2.0139096
4.065855 2.8794084 -1.8676835
14.260978 13.530782 -2.0821755
4.2248163 3.0453916 -1.8724407
16.890902 16.286266 -2.0171361
4.402597 3.2308583 -1.8803035
20.933336 20.521093 -1.9264673
4.5829668 3.4196918 -1.8781034
26.660835 26.528799 -1.6815045
4.7983847 3.6446486 -1.8841895
5.0293484 3.8861649 -1.8857299
20.979641 20.698128 0.040740222
5.286643 4.1553159 -1.8859183
5.579967 4.4621887 -1.8856403
5.9533119 4.8516064 -1.9032019
6.3876562 5.3048038 -1.9212946
6.8294773 5.7676125 -1.9119898
7.5400152 6.5073009 -1.9674407
8.3242884 7.3257337 -1.9982785
3.6658869 2.4484353 -1.8481369
9.1250629 8.1175327 -1.9715108
3.7967224 2.583806 -1.8586849
10.288245 9.3260412 -1.9886311
3.9260941 2.7182491 -1.860128
11.879835 10.979327 -2.0170267
4.0777569 2.8753226 -1.870006
14.333888 13.526902 -2.0854185
4.2309203 3.0345962 -1.8700947
17.536137 16.856247 -2.0971427
4.4028301 3.2131343 -1.8737003
18.166334 17.542465 -1.6243846
4.5978756 3.4155066 -1.8807694
26.80831 26.525772 -1.6816007
4.8100982 3.6359711 -1.8843135
5.0470409 3.8820884 -1.8886992
21.051313 20.651581 0.044477969
5.3118005 4.1571989 -1.8920709
5.602128 4.4592962 -1.8893582
5.9726624 4.8436217 -1.9047333
6.4029851 5.2901082 -1.9203347
6.8448162 5.7502279 -1.9104317
7.5534554 6.4836392 -1.9643875
8.3497133 7.3094826 -1.9982103
3.6751757 2.4441788 -1.8498338
9.1666327 8.112916 -1.9749132
3.8039908 2.5767961 -1.8582276
10.311334 9.2955523 -1.985926
3.9312758 2.7084157 -1.8576766
11.914738 10.951167 -2.0155745
4.0858893 2.8674791 -1.8694943
14.351351 13.46592 -2.0791073
4.2458739 3.0325682 -1.8740655
17.454975 16.674551 -2.075949
4.4158111 3.2081368 -1.8757082
18.123194 17.395634 -1.6112101
4.6089029 3.4074054 -1.8809758
40.085869 40.034187 -2.6198146
4.8139496 3.6194541 -1.8797802
5.0528846 3.8661127 -1.8850681
21.085321 20.565983 0.048408777
5.2785916 4.100563 -1.8678712
5.6122751 4.4442501 -1.8872601
5.9866233 4.8301573 -1.903855
6.4115019 5.2685533 -1.916587
6.8696251 5.7424154 -1.9124576
7.5763783 6.4696345 -1.9646047
8.3654909 7.2834005 -1.9951841
3.6840582 2.440279 -1.8515545
9.1612549 8.0634031 -1.9659871
3.8181968 2.5773678 -1.8639427
10.331344 9.2651501 -1.9829897
3.9434481 2.7063074 -1.8611597
11.965752 10.943051 -2.0179353
4.0960431 2.8625412 -1.8708991
14.380181 13.421356 -2.0753284
4.2526946 3.0234659 -1.8726517
17.813427 16.948092 -2.1160557
4.4218216 3.1972771 -1.8734444
17.495796 16.659231 -1.5375813
4.6154447 3.3959763 -1.8787612
26.648352 26.060774 -1.649932
4.8171277 3.6035328 -1.8752867
21.13559 20.461782 -0.60337877
5.0646234 3.8573177 -1.8851422
21.090376 20.457987 0.052229911
5.3016419 4.1017399 -1.8733767
5.6390519 4.4472814 -1.8935992
6.0024276 4.8201404 -1.9042295
6.4326162 5.2614493 -1.9184662
6.9002829 5.742301 -1.9170998
7.5968013 6.4552426 -1.9644216
8.3854418 7.2640471 -1.9939231
3.6884642 2.4312501 -1.8489921
9.1861382 8.0418673 -1.964871
3.8229795 2.5679038 -1.8614341
10.373695 9.2541437 -1.9849025
3.9485812 2.6964352 -1.8587068
12.021474 10.935701 -2.0207336
4.0978208 2.8484924 -1.8656679
14.41955 13.382945 -2.072829
4.2625446 3.0163488 -1.8730096
17.916382 16.953329 -2.1201818
4.4347796 3.1921997 -1.8754488
17.768637 16.838917 -1.5577717
4.6238174 3.3852577 -1.8773285
26.71946 25.980238 -1.6446667
4.8313603 3.5973728 -1.8769599
5.065064 3.8360925 -1.8785812
21.139053 20.38814 0.056080788
5.3027225 4.0797048 -1.8671166
5.6464605 4.4294748 -1.8902069
6.0163207 4.8065848 -1.9033474
6.4546256 5.2533946 -1.9202846
6.9128008 5.7219858 -1.9145094
7.5839105 6.4053316 -1.9524976
8.4148664 7.2517262 -1.9951099
3.6965008 2.4257345 -1.8496213
9.1845436 7.9938922 -1.9566191
3.8314381 2.5620089 -1.8619975
10.403502 9.2304182 -1.9838389
3.9574342 2.6901853 -1.8592058
12.053469 10.904299 -2.018693
4.1122084 2.8467221 -1.8698705
14.458795 13.344431 -2.0703261
4.2710934 3.0079587 -1.8724643
18.013889 16.952473 -2.1235166
4.4438486 3.1832986 -1.8748704
17.980894 16.9548 -1.5714779
4.6360712 3.3783448 -1.8783499
18.384155 17.398399 -1.0488394
4.8403091 3.5860057 -1.8755299
5.0866714 3.8357432 -1.8837394
21.16362 20.293972 0.060033888
5.3519173 4.1050725 -1.8856605
5.6524482 4.4103379 -1.8861705
6.0328851 4.7956743 -1.9036659
6.4807229 5.2493114 -1.9237684
6.9266138 5.703012 -1.9124306
7.6149101 6.3994303 -1.9555103
8.4318056 7.2268829 -1.9925007
3.7004504 2.4170778 -1.8470839
9.2092562 7.9750175 -1.9559647
3.8369784 2.554126 -1.8605393
10.461036 9.2373734 -1.9897927
3.9658298 2.6843441 -1.8597325
12.108743 10.899809 -2.0218751
4.1197848 2.8392434 -1.8693851
14.505469 13.317886 -2.0696273
4.2829733 3.0037549 -1.8746549
18.110029 16.955481 -2.1272063
4.4497676 3.1723833 -1.872605
18.065739 16.946728 -1.5723944
4.6490602 3.3732152 -1.8802229
18.41806 17.336864 -1.0447809
4.8552341 3.5816352 -1.8780125
5.0956707 3.8242445 -1.8823453
21.185745 20.204685 0.063751906
5.3562851 4.0875711 -1.8815073
5.6670866 4.4012074 -1.8866953
6.0350027 4.772141 -1.8980278
6.4949989 5.23522 -1.9228538
6.9407744 5.686316 -1.9109241
7.6503773 6.3999457 -1.9604505
8.4529896 7.2087216 -1.9916538
3.7043676 2.4084179 -1.8445472
9.2381124 7.9602108 -1.9564322
3.8462267 2.5497854 -1.8621513
10.482217 9.2080097 -1.9871711
3.9653907 2.6700623 -1.8533736
12.1233 10.854673 -2.0168254
4.1273384 2.8317447 -1.868899
14.585901 13.324788 -2.0746126
4.2884092 2.993329 -1.8723365
18.195015 16.946854 -2.1293459
4.4634557 3.1689708 -1.8754982
18.322918 17.110222 -1.5909587
4.6633582 3.3693066 -1.8829116
18.535076 17.358622 -1.0465144
4.8569012 3.5643938 -1.8727447
5.1059699 3.8140213 -1.8816828
21.232914 20.140949 0.067364663
5.3713579 4.0805459 -1.8828627
5.6898437 4.3999557 -1.8910843
6.050673 4.7619605 -1.8983959
6.509232 5.2210903 -1.9219378
6.970068 5.6844802 -1.9150366
7.7011504 6.4153109 -1.970508
8.4629765 7.1795225 -1.9874388
3.7111144 2.4016817 -1.8441111
9.2613001 7.9370594 -1.9549335
3.8334174 2.5237384 -1.8453158
10.482376 9.1548843 -1.9791821
3.9779682 2.6673455 -1.85682
12.164931 10.832693 -2.0167549
4.1378984 2.8261859 -1.8702668
14.636277 13.296936 -2.0739815
4.3007674 2.9885573 -1.8744916
18.243399 16.895733 -2.125936
4.4776783 3.1649754 -1.8783542
18.448177 17.134556 -1.595374
4.6690001 3.3559372 -1.8798393
37.859512 36.468731 -2.3750577
4.8803687 3.5670152 -1.8798321
5.1061563 3.7927966 -1.8751253
21.290419 20.080709 0.071178406
5.389811 4.075387 -1.8855473
5.6929665 4.3781123 -1.885758
6.0726066 4.7562366 -1.9011096
6.531198 5.2127328 -1.9237417
6.9975944 5.6788549 -1.9180585
7.7183785 6.3953609 -1.9688388
8.4992275 7.1737204 -1.9907137
3.7215509 2.3984001 -1.8468628
9.2844238 7.9138365 -1.953432
3.8417587 2.5177953 -1.8458784
10.506286 9.1252813 -1.9767891
3.9854836 2.6597967 -1.8563319
12.212187 10.816096 -2.0178082
4.1484504 2.8205869 -1.8716327
14.668193 13.250811 -2.0702662
4.3118281 2.9825082 -1.8757433
18.263256 16.816536 -2.1187117
4.4814334 3.1509681 -1.8743335
18.274046 16.862749 -1.5693153
4.6732702 3.3413022 -1.8759502
38.1362 36.52776 -2.3796871
4.8892169 3.5555162 -1.8783969
5.1170049 3.7819009 -1.8744208
21.325037 19.997755 0.075076908
5.3960791 4.0584483 -1.8820366
5.7178283 4.3772912 -1.8907357
6.0794435 4.7358508 -1.8972205
6.5379672 5.1895971 -1.9194313
7.016808 5.6650386 -1.9180118
7.7229891 6.3631663 -1.9629794
8.5299053 7.1623063 -1.9922997
3.7266345 2.3908577 -1.8453876
9.3174009 7.902863 -1.9550096
3.8421359 2.5052049 -1.8403302
10.55399 9.1219578 -1.9804093
4.0039744 2.6633942 -1.8647164
12.243392 10.787388 -2.0161479
4.1610942 2.8178415 -1.8749117
14.696241 13.205541 -2.0664623
4.3119845 2.9671252 -1.8698207
18.396566 16.854494 -2.127281
4.4898558 3.1424601 -1.8737839
18.040031 16.540565 -1.5379094
4.6822228 3.3322585 -1.8753663
21.357079 19.835632 -1.2194871
4.9027767 3.5496793 -1.8800958
5.1393175 3.7831714 -1.8803359
21.341665 19.904205 0.078794092
5.4070287 4.0473866 -1.8813223
5.7365093 4.3718772 -1.8931817
6.0991678 4.7294855 -1.899381
6.5506878 5.1740165 -1.917956
7.0141339 5.63201 -1.9103738
7.7711506 6.3753376 -1.9720789
8.5593491 7.1520176 -1.99396
3.7316942 2.3833036 -1.8439121
9.3390703 7.8808513 -1.9535898
3.8575702 2.50667 -1.8470547
10.596081 9.1129484 -1.9827055
4.0097647 2.65503 -1.8632706
12.273104 10.757208 -2.0142012
4.1685905 2.8102269 -1.8744205
14.731271 13.167128 -2.0638378
4.3211989 2.9603102 -1.8702027
18.428921 16.793247 -2.1223266
4.4916739 3.1277428 -1.8689398
18.148537 16.555456 -1.5412422
4.6938095 3.3256922 -1.8764147
40.407516 38.344273 -2.5070553
4.917676 3.5450592 -1.8825663
5.1495028 3.772825 -1.8796686
21.349367 19.802299 0.082530051
5.4247608 4.042757 -1.8840438
5.7332444 4.3455048 -1.8853294
6.1133723 4.7177753 -1.89914
6.5675297 5.1623859 -1.9181443
7.0615897 5.6472011 -1.921096
7.7815528 6.3509078 -1.9686133
8.5676622 7.1212759 -1.9893194
3.7396131 2.3776345 -1.8445352
9.3606043 7.856041 -1.9517056
3.8646078 2.4994795 -1.8465915
10.64402 9.1062756 -1.9858743
4.0197997 2.6497567 -1.8647431
12.298868 10.71956 -2.0110013
4.1713595 2.7973108 -1.8701316
14.772734 13.130441 -2.0617683
4.3308887 2.9529624 -1.8705512
18.476833 16.741449 -2.1188893
4.5084734 3.12607 -1.8735064
18.2243 16.53223 -1.5407726
4.6926126 3.3060377 -1.8692604
40.19112 37.908504 -2.4773359
4.9210663 3.5284126 -1.8780328
5.1670704 3.7681825 -1.8826114
21.404417 19.740334 0.086350054
5.4486437 4.0425186 -1.8894662
5.7140818 4.3028212 -1.8697158
6.1144948 4.6920786 -1.8928543
6.5782552 5.1431861 -1.9154993
7.0947342 5.6465125 -1.9261359
7.8027954 6.334765 -1.9683295
8.5700035 7.0825419 -1.9825042
3.7462683 2.3707938 -1.8440951
9.3849058 7.8338828 -1.9505662
3.871624 2.4922681 -1.8461275
10.646348 9.0557852 -1.9785455
4.0272632 2.6420856 -1.8642496
12.354541 10.710608 -2.0137193
4.1792607 2.7891908 -1.869609
14.824131 13.103249 -2.0613425
4.3431821 2.9480095 -1.8726979
18.523151 16.688133 -2.1152577
4.5160232 3.11572 -1.8720614
4.7100377 3.3038352 -1.8735353
40.692394 38.169609 -2.4961071
4.9378743 3.5243604 -1.8812338
5.1764855 3.7558365 -1.8811687
21.41477 19.635048 0.090294391
5.4588609 4.0293241 -1.888013
5.7140188 4.2784481 -1.863113
6.1321712 4.6821198 -1.8937572
6.6098666 5.1437607 -1.9211701
7.1012411 5.6204133 -1.9214903
7.8437543 6.3372998 -1.9745442
8.6033525 7.073504 -1.9849147
3.7475019 2.3597732 -1.8394332
9.4135122 7.8184414 -1.9510051
3.8820181 2.4889383 -1.8487557
10.698411 9.0558825 -1.9831141
4.0419793 2.6419046 -1.869675
12.411283 10.706059 -2.0171106
4.1892757 2.7839122 -1.8709985
14.858859 13.06449 -2.0587046
4.348412 2.9374664 -1.8703767
18.52326 16.596384 -2.1061385
4.5283303 3.1107903 -1.8740822
18.397505 16.511276 -1.542406
4.7175469 3.2934473 -1.8721317
4.9419303 3.5095577 -1.8775128
5.1770511 3.7365084 -1.8753868
21.494738 19.604164 0.093820363
5.4711065 4.0193672 -1.8879775
5.7421832 4.2820168 -1.8700565
6.1601796 4.6833553 -1.8994983
6.6028361 5.1095743 -1.9119297
7.1179571 5.6059155 -1.9209825
7.8610663 6.3194041 -1.9733943
8.621294 7.0521441 -1.9832093
3.7587423 2.3578632 -1.8432647
9.4420919 7.8029041 -1.9514395
3.8860474 2.4797924 -1.8462737
10.723289 9.0300198 -1.981454
4.0335207 2.6205461 -1.8574291
12.437887 10.672691 -2.014581
4.1953716 2.7750306 -1.8695642
14.906439 13.037951 -2.0581796
4.3456984 2.9196799 -1.8626593
18.582142 16.561028 -2.1047766
4.5326481 3.0984867 -1.8709546
21.438297 19.318195 -1.8352987
4.7209902 3.2793334 -1.8682805
26.595881 24.285349 -1.5307597
4.9621968 3.5097718 -1.8830665
5.1898379 3.7285876 -1.8761755
21.525599 19.525925 0.09747377
5.4791946 4.0055423 -1.8858813
5.7842731 4.2983594 -1.8834168
6.1547213 4.6532478 -1.8908738
6.6110992 5.0898976 -1.9087878
7.1233373 5.5807948 -1.9164022
7.8854175 6.3081203 -1.974562
8.6277714 7.0200233 -1.9781541
3.7711577 2.3546855 -1.8470154
9.4545736 7.7642579 -1.9463841
3.8938231 2.4716592 -1.8457524
10.758499 9.0046139 -1.9807869
4.0533967 2.6224444 -1.8657078
12.471336 10.634843 -2.0119607
4.2015128 2.7635009 -1.8670958
14.937593 12.982372 -2.0534377
4.3641834 2.9184361 -1.8683339
18.730595 16.593029 -2.1133902
4.5464787 3.0918615 -1.8728682
21.468418 19.220297 -1.8277705
4.7354574 3.2721281 -1.8700279
27.961201 25.421436 -1.6103302
4.9693046 3.4943311 -1.879999
5.2044897 3.7186511 -1.8768362
21.576376 19.446774 0.10177884
5.4961658 3.995944 -1.8870796
5.784152 4.2710814 -1.8760711
6.1808953 4.6479626 -1.8946542
6.631741 5.0766497 -1.9093481
7.1626229 5.5816841 -1.9228209
7.9030247 6.2840724 -1.9722635
8.6648731 7.0095181 -1.9808084
3.7744441 2.3463085 -1.8445019
9.4687719 7.7379122 -1.9435514
3.8922615 2.4583318 -1.839213
10.773038 8.9721346 -1.977265
4.0534334 2.6097615 -1.8603636
12.465529 10.574844 -2.003653
4.2123289 2.7598047 -1.8694533
14.981323 12.956546 -2.0528169
4.3727965 2.9119663 -1.8687421
18.756207 16.531404 -2.108232
4.5542207 3.0837162 -1.8723468
21.506645 19.156918 -1.8232762
4.7355618 3.2561159 -1.8645841
21.53285 19.222984 -1.1790103
4.9808249 3.4875658 -1.8809513
21.540859 19.271631 -0.53739536
5.2276154 3.7213478 -1.8834974
21.517687 19.290789 0.10536751
5.5076551 3.9865828 -1.8870851
5.7991576 4.2635403 -1.877268
6.2011266 4.6432962 -1.8974453
6.6672678 5.0839024 -1.9173309
7.192492 5.5811419 -1.9274524
7.9305286 6.2777286 -1.9748865
8.677125 6.9852705 -1.9779245
3.7831564 2.342026 -1.8462054
9.485652 7.711472 -1.9410006
3.9115858 2.4629135 -1.8489836
10.778886 8.928607 -1.9713544
4.0629458 2.6047716 -1.8618578
12.503345 10.552136 -2.0033667
4.2170339 2.7496901 -1.867077
15.004005 12.906532 -2.0482903
4.3805537 2.9037607 -1.8682173
18.881943 16.557806 -2.1154847
4.5678244 3.0798457 -1.8752178
21.546526 19.088587 -1.8184143
4.7564697 3.2579219 -1.8713285
21.619436 19.198271 -1.1776098
4.9888191 3.476423 -1.8795458
21.586706 19.208578 -0.53355682
5.2279806 3.7019873 -1.8777167
21.572233 19.236002 0.10895643
5.5197964 3.9764738 -1.8870434
5.8036852 4.2449641 -1.8732804
6.2108936 4.627408 -1.8953992
6.6938248 5.0809875 -1.9213744
7.1863351 5.5454206 -1.9188036
7.9333682 6.2464027 -1.9690961
8.7005501 6.9690313 -1.9778847
3.7888207 2.3335235 -1.8446735
9.5094185 7.6861806 -1.9393851
3.9253364 2.4608338 -1.85359
10.805018 8.8979168 -1.9691538
4.0694032 2.5953553 -1.8603498
12.517114 10.499891 -1.9975027
4.2292027 2.7444718 -1.8693384
15.095053 12.911155 -2.053755
4.3945804 2.8992674 -1.8712198
18.959703 16.52739 -2.1153646
4.5649614 3.0591469 -1.8668782
21.581078 19.002295 -1.8119717
4.7676353 3.2487061 -1.8714765
44.242798 40.177551 -2.6399088
4.9965706 3.4627872 -1.8772892
5.2488556 3.6988075 -1.8820568
21.595272 19.138462 0.11305878
5.5346427 3.9661613 -1.8875946
5.8123765 4.2274179 -1.8704795
6.229229 4.6162567 -1.8962325
6.7121897 5.0670562 -1.921425
7.2190199 5.541708 -1.9232348
7.9554195 6.2286181 -1.9687177
8.7205563 6.9448857 -1.9760095
3.7978926 2.3287764 -1.8463486
9.5419378 7.6715145 -1.9404577
3.9348192 2.455718 -1.8551595
10.846973 8.8847933 -1.9709646
4.0780101 2.5886927 -1.8608314
12.574059 10.491141 -2.0004456
4.2316589 2.7314985 -1.8650507
15.165035 12.900244 -2.0563107
4.4027815 2.8904862 -1.8706597
19.002398 16.470013 -2.111299
4.5574398 3.0354354 -1.8560079
21.613462 18.920853 -1.8058982
4.7795949 3.2412522 -1.8724746
42.108124 37.961697 -2.4862075
5.0091882 3.4546824 -1.878158
5.2497206 3.6787834 -1.8762356
21.673161 19.099018 0.11684951
5.541811 3.9502292 -1.8847631
5.817472 4.2080865 -1.8664459
6.2538385 4.612277 -1.9001011
6.7253857 5.0501113 -1.9198738
7.2293172 5.5193477 -1.9201106
7.9878678 6.2223797 -1.9721092
8.7306252 6.9140463 -1.9717101
3.7976346 2.3165982 -1.8406274
9.56005 7.6462312 -1.9382728
3.9309502 2.4396682 -1.8465527
10.875753 8.8625002 -1.9702669
4.0848651 2.5813103 -1.860361
12.626331 10.48141 -2.0029395
4.2455373 2.7295222 -1.8692504
15.207958 12.868614 -2.0550351
4.411818 2.8833809 -1.8710295
18.048935 15.504026 -1.9806439
4.5817747 3.0410938 -1.8657273
21.646706 18.846939 -1.8004739
4.788269 3.2319107 -1.8718795
5.0184569 3.4447 -1.8775221
5.265172 3.6730907 -1.8784698
5.5496607 3.9362535 -1.8826627
5.8471713 4.2122927 -1.8739966
6.2691731 4.6013727 -1.900437
6.7319651 5.0289035 -1.9161712
7.2299867 5.4901972 -1.9140071
8.0091858 6.2080011 -1.9723302
8.7596807 6.9028769 -1.9733313
3.8041091 2.3095849 -1.8401811
9.614377 7.651123 -1.9448997
3.9377904 2.4322596 -1.8460813
10.922084 8.8530426 -1.9730383
4.0881863 2.5700054 -1.8569208
12.626202 10.420244 -1.994958
4.2532377 2.7211809 -1.8687195
15.241277 12.823741 -2.0517354
4.4226599 2.876904 -1.8722626
18.001778 15.370179 -1.9657265
4.5890403 3.0305607 -1.864277
21.66527 18.753304 -1.7931377
4.7933478 3.2183323 -1.8688046
27.754223 24.374125 -1.5400196
5.0282755 3.4340656 -1.8768452
5.2282891 3.6196899 -1.8529943
21.746061 18.949621 0.12432656
5.5623374 3.9252915 -1.8825701
5.8734012 4.2118082 -1.8795689
6.2738767 4.5793948 -1.8959454
6.7307262 4.9990759 -1.9090983
7.2616959 5.4872217 -1.9184896
8.0228539 6.1845908 -1.9697031
8.7681246 6.8706627 -1.9686145
3.8221221 2.3125246 -1.8492709
9.6498013 7.6386828 -1.9466935
3.9446073 2.4248316 -1.8456091
10.93325 8.8116894 -1.9679993
4.0980463 2.5644176 -1.8583797
12.631683 10.364485 -1.9881021
4.2582488 2.7104995 -1.86631
15.290645 12.793448 -2.0509949
4.4321432 2.8692145 -1.8725966
18.097029 15.366515 -1.9689509
4.6044316 3.0271535 -1.8679608
18.563982 15.824267 -1.4889396
4.7997465 3.2059574 -1.8665439
5.0408316 3.4258416 -1.8777093
21.777563 18.826792 -0.51153409
5.2903156 3.6540251 -1.8792053
5.5777998 3.9167795 -1.8838447
5.8968301 4.208693 -1.883854
6.2927613 4.5701103 -1.8974177
6.7394028 4.97825 -1.9058927
7.2948794 5.4853973 -1.9234713
8.0422382 6.1663456 -1.9689227
8.789546 6.8502154 -1.9676481
3.8201027 2.2996459 -1.8425176
9.6474485 7.5975289 -1.9397718
3.9479966 2.4160151 -1.8431529
10.95594 8.7868271 -1.966421
4.1110101 2.5631411 -1.8628339
12.690843 10.364289 -1.9923776
4.2649951 2.7031074 -1.8658406
15.322267 12.755854 -2.0484598
4.4379544 2.8601952 -1.8712009
19.188046 16.271297 -2.098762
4.613368 3.0200412 -1.8682896
18.612316 15.7861 -1.4867932
4.8077865 3.1971474 -1.8659846
5.043891 3.41154 -1.8740278
5.2953253 3.6402459 -1.876382
21.836857 18.823772 0.13155982
5.5919318 3.9096572 -1.8852087
5.9018054 4.1919999 -1.8805524
6.2972145 4.5510716 -1.8936304
6.7664652 4.9771118 -1.9105264
7.2842841 5.4482174 -1.9138874
8.0681963 6.1581082 -1.9710552
8.8158722 6.838778 -1.9689234
3.8278174 2.2936683 -1.8431277
9.679841 7.5823059 -1.940818
3.9599953 2.4130313 -1.8467571
10.994833 8.7703972 -1.9675504
4.111599 2.5495229 -1.8574346
12.759555 10.365194 -1.9975051
4.2806487 2.7016213 -1.8709389
15.36557 12.719957 -2.0467765
4.4446878 2.8501172 -1.8697392
18.029104 15.136409 -1.9438616
4.6205597 3.009428 -1.8668362
18.560646 15.647099 -1.4743218
4.8168683 3.1871393 -1.8653499
5.0605717 3.406888 -1.8772
5.3043151 3.6275673 -1.8749281
5.6017098 3.8960869 -1.8837427
5.8995805 4.1662579 -1.873314
6.3174772 4.5429463 -1.8956941
6.779377 4.9600248 -1.9089721
7.3246927 5.452632 -1.9213926
8.080224 6.1332741 -1.9679624
8.8372059 6.8181815 -1.9679509
3.8381062 2.2898576 -1.8458549
9.7151623 7.5695596 -1.9425975
3.962822 2.4021931 -1.8432254
11.032237 8.7525053 -1.9683477
4.1214175 2.543843 -1.8588892
12.782453 10.325027 -1.9939853
4.2614183 2.6702185 -1.85164
15.420657 12.694477 -2.0469434
4.452744 2.8411868 -1.8691734
19.304277 16.184383 -2.0946805
4.6345701 3.0046904 -1.8696576
18.640717 15.626847 -1.4743155
4.8259206 3.1771047 -1.8647143
18.605503 15.629545 -0.9314009
5.0716734 3.3973382 -1.8772885
5.3132639 3.6148665 -1.873474
5.6199555 3.889888 -1.8863775
5.9401093 4.1779046 -1.8852652
6.3247914 4.523437 -1.8923949
6.7965732 4.946702 -1.9090697
7.3244548 5.4211211 -1.9147204
8.0833921 6.1007094 -1.9621044
8.865818 6.8039846 -1.9690541
3.845799 2.283819 -1.8464625
9.7504807 7.5566683 -1.9443699
3.9708629 2.395802 -1.8437694
11.059247 8.7253389 -1.9668704
4.1298971 2.5369992 -1.8593637
12.823034 10.300537 -1.9938024
4.268939 2.6618309 -1.8511094
15.468274 12.662202 -2.0459411
4.4689369 2.8391907 -1.8739856
18.506767 15.382528 -1.9860717
4.6472068 2.9987211 -1.8716213
18.699928 15.587708 -1.4723395
4.8446565 3.1753674 -1.8697661
18.628834 15.55864 -0.92678404
5.0869479 3.3913593 -1.8796848
5.3334637 3.6118722 -1.8778332
5.6296668 3.8762429 -1.8849088
5.8962197 4.1161604 -1.8594888
6.3334746 4.5051751 -1.8896915
6.8093853 4.929533 -1.9075128
7.3430386 5.4061923 -1.9146262
8.1098671 6.0886726 -1.9636208
8.9017715 6.7961249 -1.9722294
3.8492012 2.2749054 -1.84392
9.7726622 7.5347428 -1.943272
3.9784966 2.3898258 -1.8443404
11.065383 8.682868 -1.9612879
4.1379414 2.5305955 -1.8598663
12.842449 10.260904 -1.9901263
4.2840919 2.6607568 -1.8562354
15.477846 12.600721 -2.0395298
4.4696708 2.8249373 -1.8689691
18.133907 14.968852 -1.9315253
4.649693 2.9850659 -1.8676361
18.823681 15.610797 -1.4768064
4.8517556 3.1646593 -1.8683521
18.701595 15.537072 -0.92559779
5.0932341 3.3787625 -1.8775014
5.3445859 3.6021974 -1.8778719
5.6443887 3.8682027 -1.8862177
5.8570604 4.0604239 -1.8363366
6.3398881 4.4865055 -1.8864478
6.8300362 4.9208159 -1.9093169
7.3489752 5.3820882 -1.9105514
8.1411724 6.0828042 -1.9670469
8.9144573 6.7701354 -1.9692513
3.8590913 2.2714205 -1.846669
9.7621298 7.4844003 -1.9340519
3.9781895 2.3772044 -1.8388003
11.107084 8.6715317 -1.963472
4.1352735 2.5152051 -1.8525425
12.872173 10.23036 -1.9883934
4.3046708 2.6641657 -1.8651081
15.514096 12.562829 -2.0372868
4.4785514 2.8176155 -1.8693303
18.916637 15.571871 -2.0202124
4.6535082 2.9725878 -1.8645066
21.9175 18.241385 -1.7563833
4.8490577 3.1456661 -1.8612524
43.140213 36.960949 -2.4231381
5.096662 3.3637664 -1.8737797
5.3528452 3.5900724 -1.8764564
5.6533785 3.8552289 -1.8847932
5.934237 4.1047702 -1.8649396
6.3636227 4.4827595 -1.8903404
6.8565087 4.9170389 -1.9133178
7.3738718 5.374423 -1.913045
8.1739674 6.078084 -1.9709271
8.9255743 6.7428498 -1.9658586
3.8566504 2.2562292 -1.8387828
9.8045292 7.4749374 -1.9371969
3.9892063 2.3725104 -1.8413507
11.148787 8.6540613 -1.9647878
4.1427507 2.5067203 -1.8520076
12.933766 10.220382 -1.9916741
4.3126168 2.655149 -1.8645397
15.574063 12.536846 -2.0377316
4.4856067 2.8069048 -1.8678313
18.508446 15.119417 -1.9605666
4.67904 2.9764302 -1.8741173
21.941137 18.148174 -1.749277
4.8766885 3.1502423 -1.8711306
5.1138539 3.358217 -1.8768991
5.3551569 3.5705402 -1.8713244
5.6636238 3.8407598 -1.8832749
5.9885621 4.1262469 -1.8825637
6.3787203 4.4685149 -1.8899585
6.8642087 4.8937612 -1.9094945
7.3961911 5.3608036 -1.9138886
8.1896677 6.0543804 -1.9686729
8.952239 6.7244282 -1.9660336
3.866509 2.2526994 -1.8415301
9.8354435 7.4605269 -1.938305
3.9941282 2.3642797 -1.8398834
11.163567 8.619216 -1.9611427
4.1426554 2.4935939 -1.8466427
12.961889 10.188275 -1.9896523
4.3250952 2.6516266 -1.8677813
15.622172 12.509056 -2.0373216
4.4958191 2.8006732 -1.8690859
4.6828108 2.9638927 -1.8709856
21.967188 18.069984 -1.7434574
4.8963218 3.1500165 -1.8770181
22.091097 18.217827 -1.1141089
5.1242676 3.3491297 -1.877021
5.367599 3.5619924 -1.8720866
5.6768422 3.8313756 -1.883896
5.9997015 4.1135306 -1.8817629
6.3966398 4.4596491 -1.8914655
6.8892107 4.8885636 -1.912937
7.4078259 5.3416481 -1.911831
8.2017469 6.0317287 -1.9661063
8.9929218 6.7225242 -1.9709271
3.8711104 2.2448335 -1.8400452
9.8588629 7.4396272 -1.9375664
4.0003538 2.3571324 -1.8394339
11.200725 8.6036015 -1.9623376
4.1586733 2.4937937 -1.8530092
12.985408 10.152229 -1.9867977
4.3362136 2.6469307 -1.8700839
15.683797 12.492754 -2.0389776
4.4977531 2.787565 -1.8649675
18.407701 14.865442 -1.9320756
4.6879272 2.9525137 -1.8687078
21.997488 17.995708 -1.7380562
4.9061451 3.1415212 -1.8772215
45.474297 38.338234 -2.5220304
5.1374941 3.3423779 -1.8786782
5.3800225 3.5534034 -1.872847
5.6929202 3.8243654 -1.8858792
6.0050001 4.0959053 -1.8784093
6.4291482 4.4630294 -1.8989078
6.8848491 4.8584409 -1.9053863
7.4179206 5.3212199 -1.909269
8.2552948 6.0443373 -1.9764014
8.984479 6.6785984 -1.9621466
3.871151 2.2318244 -1.8342779
9.8967686 7.4258776 -1.9395837
4.0126724 2.3534226 -1.8429968
11.228787 8.5742054 -1.9607326
4.1728377 2.4907587 -1.8573576
13.01682 10.11595 -1.9845182
4.3427396 2.6366949 -1.8685747
15.757302 12.477665 -2.0414584
4.4839826 2.7597642 -1.8500435
17.919659 14.355135 -1.8637775
4.7079401 2.9515002 -1.8748919
22.054941 17.932405 -1.7341349
4.9169965 3.1317809 -1.8773474
30.512194 25.239824 -1.6063858
5.1518302 3.3342819 -1.880252
5.3907542 3.5410092 -1.8720683
22.132875 18.118969 0.16570529
5.7016134 3.8085814 -1.8836752
5.9999747 4.0669627 -1.8698553
6.4485893 4.4522462 -1.9002963
6.9114542 4.8512144 -1.9087037
7.4386358 5.3061647 -1.9096004
8.261941 6.0128732 -1.9713832
9.0184565 6.6662564 -1.9643809
3.8796501 2.2271533 -1.8359649
9.9366446 7.4187217 -1.9428812
4.0161939 2.3440537 -1.8405106
11.219151 8.5188351 -1.9519316
4.179419 2.4831116 -1.8568777
13.032557 10.073372 -1.9802793
4.3579469 2.6352751 -1.8736826
15.800806 12.445391 -2.0403278
4.514852 2.7704971 -1.8647193
4.7046161 2.9331841 -1.867494
4.9211287 3.1185734 -1.8743047
30.556265 25.136555 -1.5997449
5.159338 3.3227274 -1.8788325
5.4103189 3.538275 -1.8764492
5.7162118 3.800266 -1.884972
6.0240698 4.0651169 -1.8747917
6.4577026 4.4358015 -1.8982311
6.9142814 4.8272943 -1.9039019
7.453064 5.2894011 -1.9085482
8.2738714 5.9900594 -1.9688107
9.0486612 6.6551585 -1.9663602
3.8894639 2.2235157 -1.8387072
9.9479151 7.3874121 -1.9391886
4.0223632 2.3368449 -1.8400587
11.254618 8.5016785 -1.9527935
4.1900501 2.4787395 -1.8593274
13.06178 10.042273 -1.9785258
4.358067 2.6215479 -1.8684908
15.842719 12.411697 -2.0389619
4.5291514 2.767539 -1.8686525
19.893404 15.865507 -2.0865872
4.7194405 2.9297702 -1.8711857
18.934889 15.088246 -1.4366457
4.9280438 3.1076825 -1.8728837
18.894436 15.087561 -0.89663041
5.1682382 3.3123288 -1.8781806
5.4154968 3.5236247 -1.8735794
5.7206359 3.7835295 -1.8814975
6.0379586 4.0547185 -1.8752629
6.4579349 4.4120331 -1.8926078
6.9288526 4.8132248 -1.9034914
7.4585161 5.2651711 -1.9044737
8.2887144 5.9697218 -1.9671553
9.0743561 6.6401811 -1.9670943
3.8952985 2.2166595 -1.8382779
9.9575691 7.3548312 -1.9351298
4.0325456 2.3328485 -1.8426563
11.309764 8.5008354 -1.9578282
4.1911559 2.466671 -1.8549397
13.124339 10.039056 -1.982833
4.3622613 2.611166 -1.8661081
15.867818 12.363809 -2.0350668
4.540679 2.7622716 -1.8707939
19.952499 15.826793 -2.085192
4.7230291 2.9171793 -1.8680538
18.971909 15.035504 -1.4331737
4.9306688 3.0933144 -1.8690315
18.917643 15.023296 -0.8924911
5.1713824 3.297236 -1.874458
5.4307303 3.5172269 -1.8757809
5.7279105 3.7691784 -1.8793861
6.0503621 4.0430679 -1.8750948
6.4772425 4.4040775 -1.8946935
6.9463568 4.801558 -1.9041759
7.4743199 5.2495852 -1.9039239
8.3319693 5.9729576 -1.9742059
9.1180868 6.6401196 -1.9727799
3.9014754 2.2093582 -1.8378211
9.9729023 7.3245344 -1.9320809
4.0336771 2.320848 -1.8381083
11.343657 8.4791098 -1.9579235
4.2021666 2.461761 -1.8573569
13.176514 10.02339 -1.984795
4.3723688 2.6046908 -1.8674358
15.913191 12.328634 -2.0337634
4.5359221 2.7429726 -1.862172
18.950752 14.895574 -1.9562787
4.7298741 2.9062889 -1.8665913
19.01288 14.980899 -1.4296449
4.940866 3.0840919 -1.8691927
19.030405 15.029211 -0.89329636
5.1778908 3.2838256 -1.8722302
5.4248414 3.4924438 -1.8670739
5.7445188 3.7611916 -1.8813123
6.0648842 4.0317731 -1.8755118
6.4987679 4.3963785 -1.897313
6.9765458 4.7986283 -1.909182
7.4954576 5.2365875 -1.9048151
8.3567877 5.9586926 -1.9752163
9.1358585 6.6160836 -1.9709414
3.9076309 2.2020385 -1.8373638
9.9942007 7.2992082 -1.9304985
4.0361104 2.3099296 -1.834578
11.392736 8.4698229 -1.9612223
4.2159076 2.4589767 -1.8617235
13.172219 9.9607849 -1.9765664
4.3838468 2.5992792 -1.8696972
15.96001 12.294566 -2.0326815
4.5464554 2.7360046 -1.8633844
19.028147 14.871619 -1.9570502
4.742332 2.8999059 -1.8685364
19.061346 14.932565 -1.4267948
4.9496131 3.0736902 -1.868543
45.867241 37.342258 -2.4579673
5.1642094 3.2541871 -1.8592659
5.4420495 3.4864616 -1.8699535
5.747961 3.7424908 -1.8771111
6.0690727 4.012064 -1.8714715
6.5114002 4.3813567 -1.8963743
6.9903703 4.7821894 -1.9081548
7.5165706 5.2235093 -1.9057027
8.3620052 5.9282908 -1.9702719
9.1490192 6.588274 -1.9678646
3.9097552 2.1915555 -1.8337383
10.003253 7.2638526 -1.9259826
4.0452714 2.3043394 -1.836128
11.391481 8.4189978 -1.9539272
4.2159529 2.4453175 -1.85633
13.224279 9.9448357 -1.9785157
4.3897748 2.5894318 -1.8682159
16.009827 12.262849 -2.0320485
4.5639844 2.7345574 -1.8690625
18.380753 14.248674 -1.8717369
4.750535 2.8900917 -1.8679239
22.234468 17.470861 -1.7006747
4.9554715 3.0609794 -1.8662728
45.70525 36.984638 -2.4339042
5.1792278 3.2477372 -1.8616418
5.4548965 3.4769049 -1.8706588
5.7615891 3.7320511 -1.8776728
6.0879469 4.0042653 -1.873794
6.5358744 4.3759036 -1.90017
7.0101242 4.7705517 -1.9093164
6.6632376 4.4998817 -1.6141596
8.3731432 5.902823 -1.9671596
9.1696634 6.566627 -1.9668485
3.9168382 2.185688 -1.8343631
10.010928 7.2300048 -1.9215628
4.0567579 2.3012948 -1.8397363
11.408458 8.3862114 -1.9509128
4.2196584 2.4353969 -1.8538948
13.25316 9.9131794 -1.9767388
4.3910718 2.576808 -1.8639625
16.046707 12.224682 -2.0299685
4.5712447 2.7258208 -1.8685178
4.7610664 2.8830798 -1.8690497
22.253458 17.388689 -1.694473
4.9722366 3.0579703 -1.8705159
45.863415 36.906837 -2.4294119
5.2095995 3.2545342 -1.872486
5.4613085 3.4633555 -1.8685123
5.7716274 3.7199712 -1.8769199
6.0928249 3.9865289 -1.8704408
6.5402632 4.3556776 -1.8963236
7.0335426 4.7634368 -1.912177
6.6603169 4.4731088 -1.6082269
8.384697 5.8797789 -1.9645807
9.1891241 6.5462689 -1.9659146
3.9292798 2.18396 -1.8392085
10.026126 7.202354 -1.9189745
4.0655284 2.296088 -1.8413112
11.416129 8.3459349 -1.9459776
4.2260838 2.4276206 -1.8534106
13.26351 9.8664436 -1.9716672
4.4034634 2.5729117 -1.8671867
16.069626 12.175111 -2.0258329
4.5742559 2.7137499 -1.8652934
20.234905 15.60393 -2.0751004
4.7687402 2.8737926 -1.8684713
22.29068 17.321718 -1.689904
4.9861412 3.0526254 -1.8731374
45.712547 36.575001 -2.4071031
5.2212057 3.2462876 -1.8733619
5.4779029 3.4579074 -1.8714279
5.7757425 3.7031806 -1.8734471
6.0902257 3.9628851 -1.8639106
6.5505481 4.3402324 -1.8948447
7.0359488 4.7393875 -1.9073747
6.7025681 4.4827566 -1.6173565
8.4022446 5.8616018 -1.9638294
9.2131014 6.5295415 -1.9662131
3.9303331 2.1719749 -1.8345003
10.052889 7.1790609 -1.9183921
4.0709543 2.2867677 -1.8397819
11.455716 8.3257275 -1.9469057
4.2457108 2.4284754 -1.8616401
13.304815 9.8379993 -1.9712738
4.4097281 2.562499 -1.8656722
16.098116 12.121638 -2.0216076
4.5950618 2.7137876 -1.8727144
19.327559 14.769336 -1.9592532
4.7645087 2.853287 -1.8601609
22.333662 17.247375 -1.6848809
4.9924254 3.0392113 -1.8708256
46.252674 36.783077 -2.4228275
5.233882 3.236675 -1.874154
5.4956589 3.4509757 -1.874252
5.7987518 3.6988714 -1.878034
6.1349425 3.9741635 -1.8769773
6.5487847 4.3122792 -1.8879334
7.0458846 4.7181969 -1.9046398
8.4050121 5.8275518 -1.9579018
9.239275 6.5100055 -1.9663388
3.9410644 2.1695728 -1.8383139
10.075912 7.1601872 -1.9180864
4.075223 2.278816 -1.838338
11.474051 8.2970324 -1.9446369
4.2420354 2.4136553 -1.8543594
13.357983 9.8292656 -1.9742707
4.4230828 2.5601184 -1.8698586
16.127901 12.082015 -2.0189955
4.5961585 2.701129 -1.8686303
19.072851 14.486087 -1.9220849
4.7744837 2.8467922 -1.8613209
18.538557 14.086715 -1.3472704
4.9913731 3.0231504 -1.8653957
46.258423 36.592808 -2.410413
5.2478247 3.2312815 -1.8765982
5.4955306 3.4334435 -1.8692557
5.8051205 3.6851239 -1.875966
