# .PCD v0.7 - Point Cloud Data file format
VERSION 0.7
FIELDS x y z
SIZE 4 4 4
TYPE F F F
COUNT 1 1 1
WIDTH 1495
HEIGHT 1
VIEWPOINT 0 0 0 1 0 0 0
POINTS 1495
DATA ascii
3.3450558 0.084413588 -1.9655318
12.823494 2.4865105 -1.8752053
3.5329957 0.13204569 -1.9648548
15.307268 3.1159849 -1.8578838
3.7590308 0.18936229 -1.9749424
18.637938 3.9599931 -1.7984446
3.9823871 0.24596447 -1.9719173
24.125038 5.3505416 -1.7337477
4.2072358 0.30292064 -1.9598764
25.471907 5.6905127 -1.2165146
4.4711761 0.3698017 -1.9541677
58.310131 14.013742 -1.3178957
4.778883 0.44778675 -1.9525923
25.573503 5.7129531 0.008098457
5.1304193 0.53688782 -1.9537115
5.5009527 0.63077623 -1.944687
5.9369359 0.74125963 -1.9379513
6.4384813 0.86835879 -1.9309011
7.1115232 1.0389843 -1.9460021
7.8868313 1.2355053 -1.9521646
8.8363237 1.4761798 -1.9604758
9.8337975 1.7289176 -1.9326599
3.1762524 0.031100035 -1.9680287
11.046141 1.9992485 -1.8900901
3.3476851 0.073970914 -1.9655601
12.843231 2.4486873 -1.8766854
3.5443456 0.12316895 -1.969561
15.336711 3.0722935 -1.8600676
3.7585177 0.17674595 -1.9731863
18.654598 3.9019735 -1.7987846
3.9872761 0.23396033 -1.972803
24.417048 5.3431106 -1.7530423
4.2034531 0.28798527 -1.9566733
25.480419 5.6076207 -1.2161967
4.4729047 0.35536975 -1.9534384
4.7953048 0.43601769 -1.9576981
25.551037 5.6219702 0.0077903233
5.1198688 0.51716977 -1.9483137
5.5218391 0.61771351 -1.9504606
5.9471755 0.72406656 -1.939777
6.445425 0.84866279 -1.9315029
7.1302762 1.0200019 -1.9495798
7.900609 1.2126839 -1.95406
8.8565855 1.4518113 -1.9634331
9.8453751 1.6990392 -1.9334757
3.1737008 0.019940674 -1.9650055
11.033668 1.9593868 -1.886662
3.3519764 0.063939214 -1.9665645
12.885939 2.4164703 -1.8814571
3.5522432 0.11337626 -1.9723969
15.358314 3.026541 -1.8613389
3.7631719 0.16543317 -1.974112
18.688488 3.8481863 -1.8007601
3.9868596 0.22062612 -1.9711328
24.385729 5.2539954 -1.7497295
4.2173676 0.27748424 -1.9615669
25.486719 5.5242476 -1.21579
4.4781733 0.34182519 -1.9542434
4.7936029 0.41966957 -1.9555677
25.623404 5.5546603 0.0076841116
5.1329765 0.50340873 -1.9517578
5.5242934 0.59997147 -1.9498711
5.9536557 0.70590287 -1.9404192
6.4691133 0.83309656 -1.9370308
7.1170359 0.99300927 -1.9446152
7.8992004 1.1860504 -1.9522985
8.8425846 1.4188745 -1.9589787
9.856864 1.6691077 -1.9342918
3.178937 0.01306051 -1.9670597
10.980827 1.9179308 -1.8768091
3.3505843 0.054967821 -1.9646344
12.884034 2.3826768 -1.8801709
3.5577948 0.10559213 -1.9742911
15.363655 2.9881148 -1.8609842
3.7619414 0.15543664 -1.9723487
18.70549 3.803983 -1.8014288
3.9786944 0.20834768 -1.9660474
24.419731 5.1991858 -1.7512451
4.2163334 0.26635939 -1.9599755
25.494238 5.4601121 -1.2156028
4.4808474 0.33093446 -1.954273
4.803709 0.4097845 -1.9584941
5.1433496 0.4927091 -1.9545125
5.5257525 0.58607262 -1.9492712
5.9609265 0.6923154 -1.9416423
6.469244 0.81642431 -1.9359788
7.1250534 0.9765901 -1.9456673
7.8887968 1.1630943 -1.9486938
8.8554831 1.3991783 -1.9606843
9.8608541 1.644604 -1.9339908
3.1746473 0.0015164018 -1.96302
11.065944 1.9020162 -1.8897109
3.3565137 0.045330465 -1.9666151
12.907318 2.3455095 -1.882201
3.5639257 0.095313907 -1.9761919
15.375347 2.9399025 -1.8611152
3.7665303 0.14410537 -1.9732748
18.710047 3.7429345 -1.8006799
3.9905033 0.19804341 -1.9703411
24.630369 5.1688056 -1.7648615
4.223084 0.25403923 -1.9616306
25.500055 5.3767838 -1.2151967
4.4788594 0.31561917 -1.9520098
4.8091655 0.39519638 -1.9592586
5.1490812 0.47705764 -1.9552366
25.625277 5.4019575 0.61873615
5.5373192 0.57055956 -1.9518636
5.9710231 0.67499882 -1.9434685
6.4778976 0.79706746 -1.9371287
7.1398749 0.9565416 -1.9482406
7.9004698 1.1397436 -1.9501324
8.8641167 1.3718779 -1.9611716
9.9008446 1.6215279 -1.9403015
3.1834555 -0.0056859255 -1.9671108
11.105976 1.8789442 -1.8952386
3.3553486 0.035202026 -1.9646882
12.915936 2.3095112 -1.8822989
3.5766091 0.0878883 -1.9818307
15.389481 2.8979294 -1.8616884
3.7690346 0.13364446 -1.9733033
18.755484 3.6985686 -1.8039113
3.9913974 0.18653589 -1.9695193
24.654591 5.1019044 -1.7655904
4.2241149 0.2418775 -1.9608527
25.503487 5.3023634 -1.2147667
4.469265 0.3001619 -1.9466742
61.947952 13.973258 -1.3948374
4.8123665 0.38182265 -1.9592949
25.537291 5.3070788 0.0068114437
5.1525097 0.46273428 -1.9552755
5.5373187 0.55427045 -1.9506328
5.9768596 0.6588226 -1.9441055
6.5046673 0.78439099 -1.9437459
7.1333365 0.93396038 -1.9452795
7.9265723 1.1227038 -1.9552209
8.8624144 1.3453596 -1.9595915
9.8998013 1.5921049 -1.9389117
3.1805151 -0.015706062 -1.9640847
11.1402 1.8543172 -1.8998063
3.3660433 0.027900517 -1.9695941
12.899382 2.2675953 -1.8788308
3.5686347 0.075519383 -1.9762459
15.418971 2.8595548 -1.8640882
3.7697678 0.12276691 -1.9724376
18.795002 3.6526258 -1.8065982
3.9993012 0.1766969 -1.9721053
24.682512 5.0358396 -1.7665907
4.2215505 0.22887915 -1.9584554
25.508646 5.2284403 -1.2144259
4.4847851 0.29071099 -1.9520776
25.606495 5.2497649 -0.60348386
4.8209739 0.36972731 -1.9615026
25.587242 5.243577 0.0066861771
5.1577282 0.44883555 -1.9559946
5.5317345 0.53668851 -1.947493
5.980792 0.64218944 -1.9441508
6.5052042 0.76540083 -1.9427006
7.1436858 0.91542894 -1.9468414
7.9204211 1.0979452 -1.9525381
8.9006376 1.3282945 -1.9666601
9.9005823 1.5631621 -1.9378878
3.1843803 -0.024689674 -1.965127
11.144056 1.8204207 -1.899256
3.3615601 0.016387522 -1.9657166
12.861989 2.2186153 -1.8723509
3.5624843 0.062983692 -1.9715977
15.433509 2.8147495 -1.8646694
3.7688799 0.11082989 -1.9706799
18.800245 3.5950992 -1.8060234
4.0002942 0.16448039 -1.9712856
24.701544 4.9630885 -1.7669259
4.2351465 0.21890438 -1.9633482
25.514624 5.1500754 -1.2140977
4.4842792 0.27662593 -1.9505795
59.57552 13.046757 -1.3423699
4.8351936 0.35802037 -1.9658836
25.587421 5.1636176 0.0064426325
5.1466317 0.43017906 -1.9505942
5.5355515 0.52033395 -1.9475375
5.9867816 0.62493497 -1.9447912
6.509696 0.74615651 -1.9427531
7.1599326 0.8969205 -1.9499146
7.939168 1.0775864 -1.9558024
8.9163208 1.3041553 -1.9687916
9.9189167 1.5365088 -1.9401658
3.183311 -0.035399735 -1.9631207
11.136706 1.7819448 -1.8967894
3.3656769 0.0062847733 -1.9667215
12.867414 2.177381 -1.8719125
3.5736592 0.053839564 -1.976305
15.464025 2.770751 -1.8670849
3.7785642 0.10065925 -1.9742885
18.854599 3.5454152 -1.810002
4.0049353 0.15238428 -1.9721717
24.758297 4.8944292 -1.7698479
4.238194 0.20566487 -1.9633844
25.525274 5.0681796 -1.2139602
4.4947071 0.26425725 -1.9536864
25.660282 5.0973639 -0.60429269
4.8277726 0.34039158 -1.9615827
25.695604 5.1037645 0.0064081587
5.1595039 0.416179 -1.9540397
5.5413876 0.50343186 -1.9482212
5.9855103 0.60490948 -1.9430667
6.5181384 0.72662896 -1.9439036
7.1669827 0.87492222 -1.9504784
7.9183249 1.0466177 -1.9494696
8.9284763 1.2775161 -1.9701036
9.945241 1.5097976 -1.9439144
3.192034 -0.042704463 -1.9672118
11.130278 1.7478468 -1.8946325
3.3780112 -0.00073605776 -1.9726042
12.891022 2.1449885 -1.8742058
3.572464 0.043134749 -1.9744614
15.456378 2.72367 -1.8651481
3.7826915 0.090560973 -1.9752113
18.884031 3.4967511 -1.8117821
4.0162849 0.1432597 -1.9764625
24.775932 4.8257623 -1.7701727
4.235518 0.19267285 -1.9609872
25.527811 4.9938498 -1.2135311
4.4921403 0.25053686 -1.9514191
38.782032 7.9829164 -0.88945097
4.8326387 0.32737833 -1.9623431
5.1719337 0.40390486 -1.9574802
5.555984 0.4905259 -1.9520822
6.0023355 0.59120291 -1.9472556
6.5203834 0.70805639 -1.9434059
7.1866198 0.85838002 -1.9545542
7.9043441 1.0202618 -1.944958
8.9169464 1.2487488 -1.9664648
9.9457827 1.4807742 -1.9428911
3.1956987 -0.051181734 -1.9682529
11.16228 1.7224073 -1.8988813
3.3715956 -0.012019277 -1.9677489
12.910678 2.11163 -1.8759506
3.5677867 0.031671345 -1.9707471
15.481555 2.6840177 -1.8670932
3.7798083 0.078883529 -1.9725577
18.919168 3.4492652 -1.8141083
4.018785 0.1321032 -1.976493
24.773903 4.7527127 -1.7691425
4.2488627 0.18330133 -1.9658785
25.534023 4.9204311 -1.2132806
4.4949384 0.23805112 -1.9514534
38.737984 7.8594346 -0.88826299
4.8465676 0.31638402 -1.9667224
5.1751575 0.38952035 -1.9575197
5.5538969 0.47382742 -1.9502151
5.998621 0.57283193 -1.9449339
6.5188189 0.68864673 -1.9418133
7.1854372 0.837102 -1.953101
7.9301805 1.0029125 -1.9500477
8.9015026 1.219213 -1.9620017
9.9577513 1.4543405 -1.9440663
3.2011445 -0.059856355 -1.9703122
11.167663 1.688921 -1.8986517
3.3789065 -0.02082926 -1.9707048
12.9172 2.072953 -1.8757814
3.5787437 0.023056149 -1.9754529
15.483936 2.6364298 -1.8663056
3.7752862 0.06618762 -1.9690118
18.956856 3.3987401 -1.816626
4.0178738 0.1194613 -1.9748214
24.815477 4.6848202 -1.7711064
4.2444935 0.1691801 -1.9626737
25.54101 4.8425703 -1.2130426
4.5086946 0.22716504 -1.9560928
59.781715 12.36016 -1.3453418
4.8515539 0.30246776 -1.9674855
5.1803761 0.37463218 -1.9582421
25.629665 4.8570113 0.61434174
5.5667844 0.45945126 -1.9534425
6.010005 0.55673951 -1.9473503
6.5193253 0.66853791 -1.9407715
7.1825747 0.81417686 -1.9511489
7.9353695 0.97944278 -1.9501122
8.913064 1.1941228 -1.9633099
9.9757919 1.4273884 -1.9463457
3.1963508 -0.070204973 -1.9662696
11.184097 1.659883 -1.900339
3.3911839 -0.027972579 -1.9765879
12.946352 2.0415561 -1.878899
3.5774558 0.01236856 -1.9736094
15.479763 2.5902927 -1.864826
3.7828164 0.056847632 -1.9717231
18.982018 3.3488061 -1.8180443
4.0150042 0.10714459 -1.9722959
24.930035 4.6371293 -1.7782102
4.2613597 0.16050047 -1.9691848
25.542887 4.7683253 -1.2126143
4.5114279 0.21463323 -1.9561274
38.751816 7.6286893 -0.88811201
4.8508515 0.28818506 -1.9660751
5.1908693 0.36182421 -1.9610028
5.5738668 0.44477016 -1.954758
6.0211191 0.5416382 -1.9497641
6.5026059 0.64589447 -1.9347992
7.1699119 0.79047602 -1.9466799
7.9439945 0.95816642 -1.9510874
8.9261303 1.1709504 -1.9650259
9.9415054 1.3908246 -1.9387275
3.2034278 -0.078540087 -1.9693458
11.202806 1.6292293 -1.9023523
3.3865085 -0.039441109 -1.9727105
12.962352 2.0048501 -1.8801024
3.5710838 -4.2617321e-05 -1.9689612
15.518775 2.550642 -1.868378
3.7957115 0.047940314 -1.9771188
18.99217 3.2921102 -1.8180174
4.0281672 0.097573102 -1.9774411
24.953743 4.5648627 -1.7789562
4.2443986 0.14369351 -1.9603111
25.553318 4.6913176 -1.2125554
4.5160995 0.20169538 -1.9569312
38.792183 7.5170655 -0.88876843
4.8393507 0.27072233 -1.9603242
5.1904907 0.34569281 -1.9596844
5.5829735 0.42948371 -1.956713
6.0081377 0.52022737 -1.9444853
6.5199089 0.62947994 -1.9386846
7.2009754 0.77493662 -1.9537759
7.9661865 0.93832177 -1.9552678
8.9088497 1.1396041 -1.9601554
9.995904 1.3716683 -1.9479692
3.2019432 -0.088142574 -1.9673368
11.209428 1.5979941 -1.9024385
3.3799639 -0.050651371 -1.9678552
12.983586 1.9715624 -1.8821232
3.5852914 -0.0073896646 -1.9755368
15.494906 2.5003786 -1.8646148
3.7961967 0.037027299 -1.9762536
18.995615 3.2374709 -1.8174362
4.0163794 0.083380699 -1.9706553
25.019276 4.5059128 -1.7826736
4.2504778 0.13265598 -1.9619632
25.562578 4.618753 -1.2124844
4.5151482 0.18837559 -1.9554315
58.477108 11.55059 -1.3160321
4.8403807 0.25687855 -1.9596375
5.2027526 0.33320099 -1.9631261
25.596605 4.6208825 0.61167336
5.576992 0.41198665 -1.9535732
6.0004692 0.50113302 -1.9409795
6.5350499 0.61371464 -1.9420196
7.1843948 0.7504788 -1.9483017
7.9499383 0.9117021 -1.9502988
8.916029 1.1151819 -1.9606358
10.013355 1.346242 -1.9502447
3.2056015 -0.097226977 -1.9683797
11.212504 1.5639887 -1.9018896
3.3888817 -0.05918771 -1.9717878
13.020723 1.9391434 -1.8863467
3.5857718 -0.018325925 -1.9746306
15.545359 2.4629483 -1.8695382
3.8002896 0.026192665 -1.9771789
19.003485 3.1803505 -1.8172281
4.0312562 0.074115872 -1.9766527
25.007435 4.4260445 -1.7809802
4.2513113 0.11973345 -1.961188
25.558859 4.5388894 -1.2118012
4.5215516 0.17579579 -1.9570028
4.8470206 0.24334055 -1.9611248
5.1967607 0.31590658 -1.9597666
5.5785828 0.39511412 -1.9529823
6.0191402 0.48650819 -1.9457647
6.5390911 0.59438556 -1.942073
7.1869421 0.72882801 -1.9478575
7.9701052 0.8913483 -1.9540222
8.9541187 1.0955648 -1.9677124
10.017629 1.31619 -1.9499602
3.2126076 -0.10563195 -1.9714564
11.219344 1.5307779 -1.9019815
3.3943582 -0.068475127 -1.9737679
13.042253 1.9033484 -1.8883747
3.5931439 -0.027832508 -1.9774663
15.566525 2.4192696 -1.8710363
3.806103 0.015701294 -1.9789982
19.022894 3.1256151 -1.8181115
4.0319343 0.061853111 -1.9758337
24.940599 4.3350945 -1.7754893
4.2431493 0.104972 -1.9563633
25.568598 4.4618983 -1.2117432
4.5243015 0.16244251 -1.9570397
62.018543 11.912883 -1.3922952
4.8481431 0.2286461 -1.9604404
5.2091351 0.30244166 -1.9632112
5.580121 0.37824243 -1.9523915
6.0153208 0.46717376 -1.9434458
6.5656867 0.57968491 -1.9486969
7.1970105 0.70873147 -1.9494246
7.9844995 0.86971611 -1.9563742
8.967248 1.0706289 -1.9694339
10.023738 1.2865255 -1.9500422
3.211041 -0.11523062 -1.9694473
11.221823 1.4987154 -1.9014274
3.3996916 -0.077200949 -1.9757465
13.05546 1.8681512 -1.8892989
3.5986333 -0.037105143 -1.9793649
15.563653 2.3734858 -1.869786
3.8064952 0.0047746897 -1.9781333
19.045382 3.0748975 -1.8193501
4.0288877 0.049572408 -1.9733082
25.075998 4.2899404 -1.7840916
4.2545033 0.094997048 -1.9604456
25.579163 4.3897386 -1.2117623
4.5250444 0.14949834 -1.9563073
62.641739 11.858209 -1.4055359
4.8600154 0.21701509 -1.9640971
5.2139187 0.28832453 -1.9639316
25.703396 4.4097118 0.61261469
5.579556 0.36196309 -1.9511614
6.0280805 0.45232564 -1.9464524
6.5561991 0.55873471 -1.9449147
7.2162576 0.69175738 -1.9535021
7.975656 0.8447718 -1.9532344
8.9588909 1.0429261 -1.966619
10.027482 1.2581954 -1.9497533
3.2162001 -0.12346113 -1.9715058
11.266803 1.4751408 -1.9079226
3.4032905 -0.086292148 -1.9767492
13.080229 1.8352268 -1.8918705
3.6006315 -0.047094643 -1.9793926
15.584028 2.332402 -1.8712771
3.8086097 -0.0057954192 -1.9781626
19.04038 3.0186548 -1.8180422
4.0311265 0.038381159 -1.9733392
25.121311 4.2261858 -1.7864561
4.2604537 0.083892167 -1.9620982
25.583647 4.3164053 -1.211514
4.5311823 0.13764483 -1.9578768
26.001825 4.3977823 -0.61032206
4.8627186 0.20350236 -1.9641347
5.202065 0.27087802 -1.9585288
5.5919576 0.34829575 -1.9543873
6.031436 0.43555027 -1.9464989
6.5523033 0.53897959 -1.9427751
7.2316675 0.67393368 -1.9565743
7.9839182 0.82331759 -1.9542106
8.9638844 1.0179648 -1.9666883
10.035 1.2306333 -1.9501973
3.2181773 -0.1334995 -1.9715337
11.266014 1.4382834 -1.906739
3.4002452 -0.097930253 -1.9738497
13.064981 1.7896209 -1.8886904
3.5993779 -0.059023857 -1.9775529
15.642408 2.2930307 -1.8771248
3.8162193 -0.016659498 -1.9808786
19.120565 2.9722641 -1.8245763
4.0336089 0.025781631 -1.9733742
25.127058 4.1453891 -1.7859972
4.2648721 0.070924699 -1.9629453
25.59947 4.2360663 -1.2117373
4.543035 0.12525427 -1.9617525
38.801231 6.8138318 -0.88783634
4.8712029 0.18936723 -1.9663485
5.2126541 0.2560479 -1.9612956
5.5954051 0.3307907 -1.9544359
6.0351553 0.41666406 -1.9465514
6.550683 0.51734573 -1.9411895
7.2323313 0.6505304 -1.9556317
8.0155973 0.80353767 -1.9606836
8.9809427 0.99212021 -1.9692388
10.046986 1.2002981 -1.9513842
3.2115617 -0.14462227 -1.9664757
11.295742 1.4094026 -1.9106773
3.4056149 -0.10728955 -1.9758302
13.064701 1.7494204 -1.8876998
3.6118472 -0.067620873 -1.9831958
15.672854 2.2508144 -1.8797673
3.8201573 -0.027577341 -1.9818041
19.164799 2.9219944 -1.8278275
4.0305858 0.012846887 -1.9708509
25.427572 4.1259489 -1.8060142
4.2780833 0.060419977 -1.9678401
25.59848 4.1571488 -1.211234
4.5383816 0.11043674 -1.9587207
4.8648391 0.17320925 -1.962769
5.2137918 0.24028939 -1.9606581
5.5911632 0.31281465 -1.9519354
6.0461159 0.40027076 -1.9489694
6.5431042 0.49578601 -1.937958
7.2364774 0.62913591 -1.9556913
8.002986 0.77649981 -1.9566331
8.9957018 0.96739 -1.9713728
10.041168 1.1683187 -1.9492681
3.2199225 -0.15168297 -1.9705665
11.002701 1.3231244 -1.8614079
3.4141648 -0.11484146 -1.9797603
13.098471 1.7204313 -1.8916389
3.6119058 -0.077355564 -1.9822862
15.688487 2.2113006 -1.8807955
3.8167849 -0.038532436 -1.979149
19.197851 2.8763077 -1.830151
4.0361443 0.003025651 -1.9725844
4.2712307 0.047558248 -1.9638213
25.599493 4.0879178 -1.2108847
4.5261259 0.095838726 -1.9526153
25.743324 4.1134872 -0.60439354
4.8672605 0.16052419 -1.9628044
5.21454 0.22633821 -1.9600154
5.6032615 0.30000108 -1.9551592
6.0453753 0.38377684 -1.9478291
6.548255 0.47906452 -1.9385532
7.2191668 0.60625857 -1.9502132
8.0088902 0.75595838 -1.9571486
8.994422 0.94278795 -1.9702023
10.06163 1.1450117 -1.9522735
3.2184255 -0.16236758 -1.9685608
11.319683 1.3466034 -1.9127815
3.4298913 -0.12292188 -1.9876009
13.135403 1.6847939 -1.8958722
3.6036017 -0.09059298 -1.9767045
15.678205 2.1584268 -1.8786478
3.8207839 -0.050126314 -1.9800767
19.189594 2.8123984 -1.8284992
4.0456281 -0.0082529187 -1.9760287
25.533749 3.9941599 -1.8118513
4.275537 0.034543455 -1.9646685
25.61656 4.0079083 -1.2111983
4.5324159 0.082366288 -1.9541893
4.8536291 0.14220887 -1.9563316
5.2250004 0.21140712 -1.962783
5.6065564 0.28246337 -1.9552082
6.0564418 0.36625558 -1.9502505
6.5615625 0.46032614 -1.9413484
7.2557631 0.58969265 -1.9588243
8.007863 0.72978801 -1.9558465
8.9958715 0.91387528 -1.9694569
10.075288 1.1149085 -1.9538276
3.2217693 -0.17098153 -1.9696026
11.370173 1.3232591 -1.9202411
3.4127707 -0.13593239 -1.9768876
13.110998 1.6424377 -1.8915812
3.6019747 -0.10123897 -1.9748613
15.65893 2.1096716 -1.8755707
3.819227 -0.061386287 -1.9783176
19.246506 2.7674966 -1.833017
4.0530429 -0.018504739 -1.9786167
25.544956 3.9225433 -1.8119148
4.279531 0.022995472 -1.9655119
25.625845 3.9356978 -1.2112195
4.536561 0.070104122 -1.9549921
21.17557 3.1175628 -0.50519145
4.8744583 0.13209695 -1.9636089
5.2350845 0.19823951 -1.9655454
5.618762 0.26858443 -1.9584351
6.0520434 0.34801656 -1.9479291
6.5668302 0.44240946 -1.9419472
7.2671127 0.57089096 -1.9608921
8.0100727 0.70713097 -1.9554515
9.0082035 0.8902275 -1.9711753
10.084346 1.0875409 -1.9546394
3.2235966 -0.1810357 -1.9696307
11.392195 1.2904069 -1.922905
3.4147072 -0.14658666 -1.9769174
13.139918 1.6051805 -1.8947171
3.6092367 -0.11154002 -1.9776995
15.703055 2.0668879 -1.879822
3.8178749 -0.073957026 -1.9765624
19.282965 2.7116845 -1.8355526
4.0411024 -0.033755779 -1.9718342
25.630226 3.8550918 -1.8170263
4.2855611 0.010270298 -1.9671692
4.5373211 0.055588841 -1.9542643
21.103033 3.0358369 -0.50354373
4.871726 0.11585206 -1.9614797
5.2325096 0.18085307 -1.9635499
5.6051683 0.24795729 -1.9527545
6.0630059 0.33042997 -1.9503508
6.5800323 0.42355651 -1.9447429
7.2579165 0.54571301 -1.9574358
8.0069714 0.68064481 -1.953692
9.0133352 0.86199075 -1.9712543
10.080419 1.0541744 -1.952895
3.230181 -0.18850744 -1.9727051
11.389744 1.2592518 -1.9217064
3.4266045 -0.15362412 -1.9828006
13.14606 1.5708323 -1.8948134
3.605696 -0.1218667 -1.9749191
15.710397 2.0258281 -1.8799371
3.8126082 -0.085155785 -1.9730129
19.311592 2.6647356 -1.8375144
4.0340796 -0.045871317 -1.9676025
4.3055582 0.0023238063 -1.9753008
21.023581 2.9661789 -1.0012492
4.5448899 0.044740498 -1.9565996
21.077465 2.9743421 -0.50293058
4.8795023 0.10413688 -1.9636873
5.2293949 0.16621882 -1.9615465
5.622714 0.23600233 -1.9578886
6.0771184 0.3166247 -1.953948
6.5603781 0.40233427 -1.9382193
7.2460585 0.52404994 -1.9534662
8.0222101 0.66178554 -1.9564954
9.0175457 0.83844787 -1.9713204
10.07545 1.0261147 -1.9511358
3.2318563 -0.19802922 -1.9727318
11.399569 1.2261913 -1.9224423
3.4283819 -0.16372889 -1.982829
13.156816 1.5325606 -1.895472
3.6127901 -0.13158435 -1.9777558
15.745993 1.9840508 -1.8832684
3.8233969 -0.094857454 -1.9775163
19.360907 2.6143353 -1.8413163
4.0664682 -0.052455485 -1.9821244
25.614317 3.7047875 -1.8145766
4.2843814 -0.014502406 -1.964806
21.006994 2.8990312 -1.0001723
4.5436139 0.030677676 -1.9551026
21.070734 2.9087491 -0.50272197
4.8802023 0.089397311 -1.9630036
5.2321148 0.15076303 -1.9615899
5.6200356 0.21839672 -1.9560252
6.084043 0.29931229 -1.9551828
6.577055 0.38525158 -1.9421076
7.2574577 0.50394422 -1.9555379
8.0187159 0.63669747 -1.9547321
9.035737 0.81410986 -1.9742805
10.102003 1.0000017 -1.9552524
3.2352958 -0.20782161 -1.9737773
11.409636 1.1911085 -1.9231839
3.4302311 -0.17443204 -1.982859
13.175662 1.4932981 -1.8972361
3.6129973 -0.14316767 -1.9768519
15.764318 1.9363213 -1.88455
3.830749 -0.10588908 -1.9802331
19.369442 2.553231 -1.8413051
4.0544 -0.067624092 -1.9753419
25.604609 3.6203268 -1.8131732
4.2758832 -0.029759526 -1.9599833
21.032169 2.8354487 -1.0009838
4.5406079 0.015529037 -1.9528403
21.072306 2.8409157 -0.50269455
4.8865142 0.074765146 -1.9644946
5.2442093 0.1359877 -1.9650388
5.6324172 0.20241487 -1.9592583
6.0948653 0.28156 -1.9576052
6.5806136 0.36465448 -1.9421654
7.2518463 0.47956949 -1.9530872
8.0153818 0.61025137 -1.9529729
9.0406303 0.78578717 -1.9743601
10.111351 0.96899384 -1.9560747
3.2332344 -0.21625221 -1.9717654
11.404634 1.1616337 -1.9216596
3.4299257 -0.18305361 -1.9819061
13.165497 1.4585114 -1.8951293
3.6266866 -0.14986753 -1.9834262
15.764978 1.8968573 -1.8839728
3.8235126 -0.11669618 -1.9757874
19.393185 2.5086033 -1.842895
4.0649924 -0.075962067 -1.9796313
21.174498 2.8080568 -1.5068283
4.2884655 -0.038317084 -1.964873
21.056656 2.7867613 -1.0018442
4.5479469 0.0054144263 -1.9551736
21.079077 2.7891359 -0.50279677
4.8848577 0.062253475 -1.9630799
5.2241278 0.11945069 -1.956908
5.6328773 0.18838733 -1.9586602
6.0973864 0.2667194 -1.9576471
6.596612 0.35087615 -1.9460443
7.2567573 0.46222466 -1.9536401
8.0244598 0.59169239 -1.9544004
9.0424433 0.763421 -1.97401
10.1136 0.94400972 -1.9557775
3.2332213 -0.22662753 -1.9707769
11.406713 1.1252155 -1.9211192
3.4282713 -0.19433814 -1.9799834
13.20562 1.4227145 -1.8999153
3.6268346 -0.16148651 -1.9825224
15.814404 1.8542044 -1.8889135
3.8308012 -0.12775952 -1.9785042
19.403355 2.4477255 -1.8430667
4.0831771 -0.085988939 -1.9873381
21.197411 2.7435353 -1.5078306
4.3051348 -0.049319744 -1.9713917
4.543035 -0.010022879 -1.9521439
21.115776 2.7271974 -0.50353885
4.8910885 0.047583938 -1.9645712
5.2305684 0.10371995 -1.9583153
5.6246014 0.16888762 -1.9548897
6.0930371 0.24637312 -1.9553319
6.586781 0.3280068 -1.9422687
7.2987461 0.4458341 -1.9637626
8.0421047 0.56877655 -1.9576738
9.0491104 0.7353937 -1.9745022
10.142174 0.91615778 -1.9602672
3.2329926 -0.23587656 -1.9697851
11.425566 1.0956366 -1.9234532
3.4246643 -0.20470107 -1.9770809
13.196016 1.383338 -1.8978218
3.6232529 -0.17241442 -1.9797437
15.839287 1.8129637 -1.8910959
3.8378417 -0.13753033 -1.9812175
19.418127 2.3945444 -1.843766
4.086823 -0.097040474 -1.9882222
25.2721 3.3459094 -1.7883757
4.2998786 -0.062466383 -1.9681849
4.5414605 -0.023248553 -1.9506449
4.8988376 0.034886122 -1.9667817
20.613235 2.5836124 -0.0082289129
5.2310982 0.088866889 -1.9576758
5.6383939 0.15507293 -1.9587543
6.1014738 0.23033875 -1.9571564
6.5935841 0.31028897 -1.9434159
7.2925262 0.42394751 -1.9613053
8.0496216 0.54700059 -1.9586524
9.0590401 0.71112269 -1.9758102
10.131285 0.88535637 -1.9574136
3.2379274 -0.24485677 -1.9718462
11.454409 1.0655377 -1.9273965
3.4297366 -0.21424305 -1.9790624
13.1984 1.3436177 -1.897383
3.6441705 -0.1800099 -1.9900669
15.87039 1.769788 -1.8939725
3.8414314 -0.14856946 -1.9821439
19.462799 2.3426411 -1.8472073
4.0887651 -0.10910261 -1.9882565
19.867502 2.4059675 -1.4151125
4.2947011 -0.0763219 -1.9649804
20.479713 2.5023685 -0.97480506
4.5509143 -0.035488009 -1.9537525
4.9066911 0.02130127 -1.9689949
5.2243032 0.071918488 -1.9543166
5.6523094 0.1402086 -1.9626219
6.0968342 0.21108788 -1.9548386
6.6195159 0.2944414 -1.950044
7.2826209 0.40022808 -1.9578457
8.0515337 0.52287024 -1.958262
9.0498323 0.68213934 -1.9730003
10.138058 0.85566741 -1.957865
3.2495525 -0.25222248 -1.9779738
11.434102 1.0296247 -1.9233186
3.431241 -0.22376025 -1.9790894
13.163119 1.3003628 -1.8917179
3.6352942 -0.19178271 -1.9844811
15.871497 1.7245998 -1.8934119
3.8448844 -0.15895718 -1.9830687
19.459574 2.2864912 -1.8462681
4.0851984 -0.12130755 -1.9857315
19.836838 2.3443546 -1.412552
4.3092303 -0.086258531 -1.970685
19.809727 2.3387804 -0.94417083
4.5620351 -0.04669708 -1.9576257
19.655367 2.3132634 -0.4717969
4.9088473 0.0076588988 -1.9690336
25.698395 3.2584846 0.00078592449
5.243319 0.060025215 -1.9604831
25.698553 3.2567985 0.60426509
5.6641593 0.12595946 -1.9658504
6.1051774 0.19501311 -1.9566634
6.6262288 0.27661353 -1.9511919
7.3011241 0.38235742 -1.9619268
8.0935459 0.50649577 -1.9674771
9.0422182 0.6551016 -1.9705982
10.132811 0.82588774 -1.9561114
3.2425299 -0.2631228 -1.9729156
11.462769 0.99936086 -1.9272625
3.4259117 -0.23494923 -1.9752121
13.210285 1.2676916 -1.8975981
3.6404512 -0.20196468 -1.9863832
15.931815 1.6857195 -1.8997202
3.8501797 -0.16975498 -1.9848896
19.472462 2.2294059 -1.8467962
4.0960093 -0.13198149 -1.9900277
21.106188 2.4793572 -1.499553
4.3184323 -0.097863257 -1.9739619
19.763542 2.2715461 -0.94183034
4.5750761 -0.058476508 -1.9622688
19.676264 2.2568071 -0.47221893
4.9000425 -0.0085552931 -1.9647301
5.2587328 0.046540439 -1.9652916
5.6667566 0.10921389 -1.9658979
6.1042013 0.17637515 -1.95553
6.6349726 0.25789315 -1.9528909
7.3006492 0.36016268 -1.9609822
8.1165037 0.48550802 -1.9721208
9.0599089 0.63041741 -1.9735601
10.145239 0.797077 -1.9576635
3.2405782 -0.2731978 -1.9709088
11.477693 0.9668842 -1.9289625
3.422271 -0.24583769 -1.9723111
13.263248 1.2356522 -1.9043037
3.6525683 -0.21110749 -1.992028
15.937033 1.6382105 -1.8996254
3.8536761 -0.18084586 -1.9858166
19.500933 2.1746562 -1.8487819
4.0853257 -0.14597285 -1.9840951
21.064402 2.4090538 -1.4961972
4.3059087 -0.11280859 -1.9675165
19.809992 2.2186155 -0.94369835
4.5826087 -0.071156144 -1.9646097
19.780045 2.2127726 -0.47443947
4.9096165 -0.021912277 -1.9676676
5.2406421 0.027899861 -1.9578485
5.6505594 0.089622974 -1.9595773
6.118279 0.16004282 -1.9591351
6.636055 0.23798126 -1.9523987
7.3077617 0.33914274 -1.9620495
8.1394072 0.46439928 -1.9767652
9.0446367 0.60067242 -1.9695132
10.157583 0.76821119 -1.9592159
3.2487319 -0.28116876 -1.9750028
11.503944 0.93807238 -1.9325809
3.4185085 -0.25610721 -1.9694086
13.270723 1.1989605 -1.9046837
3.6505845 -0.22176862 -1.9901854
15.969211 1.5975437 -1.9027255
3.8588099 -0.19101924 -1.9876359
19.532688 2.1237512 -1.8511231
4.0923872 -0.15652072 -1.9866847
19.98752 2.1897109 -1.4216067
4.3185444 -0.12315613 -1.9724118
19.810328 2.1621768 -0.9434973
4.5863347 -0.083621264 -1.9654135
19.895088 2.1733682 -0.47690898
4.9024329 -0.036934793 -1.9640861
22.923002 2.619272 -0.0049601048
5.2390957 0.012771606 -1.9565289
5.6454024 0.072787881 -1.9570749
6.1302662 0.14442062 -1.9621452
6.6540303 0.22176981 -1.9568338
7.2820764 0.31453067 -1.9545622
8.121604 0.43858486 -1.9717958
9.0425873 0.57461184 -1.9683481
10.17153 0.74134535 -1.9611303
3.2449386 -0.29093096 -1.9719771
11.520357 0.90770251 -1.9345965
3.4285309 -0.26432991 -1.9743183
13.28202 1.1628065 -1.9056135
3.6450717 -0.23292816 -1.9864713
15.975727 1.5529971 -1.9028523
3.8462181 -0.20380795 -1.9805105
19.544601 2.0698221 -1.8516427
4.1047916 -0.16631985 -1.9918315
19.928543 2.1241992 -1.4171437
4.3112535 -0.13647956 -1.968395
19.834234 2.1091902 -0.94437152
4.6046472 -0.09396857 -1.9723576
19.881443 2.1146953 -0.47659591
4.9099607 -0.049759507 -1.966297
23.072893 2.57565 -0.0048880242
5.2412276 -0.0018013716 -1.9565704
5.6514525 0.057627022 -1.9583931
6.1119685 0.1243276 -1.9556781
6.6510315 0.20241255 -1.955243
7.2812109 0.29369289 -1.9536138
8.1133547 0.41427773 -1.9691145
9.0462732 0.54941434 -1.96842
10.160112 0.71073109 -1.9582767
3.2514231 -0.29975903 -1.9750557
11.521338 0.87303084 -1.9340525
3.4299798 -0.27443668 -1.9743471
13.271968 1.1212323 -1.9035274
3.6466122 -0.24367738 -1.9865019
15.990381 1.5067809 -1.9039023
3.8549273 -0.21413928 -1.9841208
19.570652 2.0144198 -1.8534483
4.1029463 -0.17894596 -1.9901613
20.016029 2.0763571 -1.4227505
4.3239369 -0.14765126 -1.9732926
19.781338 2.0416977 -0.94176143
4.5846577 -0.11070275 -1.9631859
19.927504 2.0611033 -0.47757834
4.9194221 -0.063206375 -1.9692352
5.24717 -0.016754687 -1.9579759
5.6613536 0.041996777 -1.9609883
6.125905 0.10787839 -1.9592837
6.6519456 0.18247283 -1.9547514
7.2900472 0.27297479 -1.9551845
8.1110125 0.38944691 -1.9678102
9.0617371 0.52429539 -1.9709704
10.172209 0.68175989 -1.9598297
3.2562566 -0.30943009 -1.977119
11.514675 0.83525652 -1.9322313
3.4332104 -0.28490514 -1.9753544
13.283694 1.0804057 -1.9044707
3.6534612 -0.25433308 -1.9893419
15.995448 1.4563181 -1.9038169
3.865474 -0.22494507 -1.9886278
19.55757 1.949964 -1.8516189
4.1101193 -0.19101959 -1.9927552
21.00119 2.1490512 -1.4901007
4.3222127 -0.16167855 -1.9717108
19.772236 1.9771185 -0.94113231
4.592155 -0.12427568 -1.9655294
19.896666 1.9930403 -0.47689956
4.9141946 -0.079630852 -1.9663824
5.2550611 -0.032396615 -1.9600649
5.6657166 0.024534643 -1.9616758
6.1494069 0.091597676 -1.9658545
6.6586771 0.16216636 -1.9559065
7.2874985 0.24932986 -1.9537405
8.1435022 0.36805266 -1.9747477
9.0773506 0.49750286 -1.9735256
10.166946 0.64850289 -1.9580868
3.2625375 -0.31719333 -1.9801947
11.499247 0.80249721 -1.9291099
3.4482689 -0.2919333 -1.9831926
13.298276 1.0470212 -1.9059443
3.649513 -0.26456311 -1.9865617
16.003164 1.4147637 -1.9041654
3.859767 -0.23598194 -1.9850785
19.608007 1.9047282 -1.8557752
4.1008348 -0.20319963 -1.9876713
21.010714 2.0943897 -1.4903938
4.3219457 -0.17318606 -1.9709327
4.5864787 -0.13724518 -1.9624934
4.9104128 -0.093199193 -1.9642466
5.2606688 -0.04558742 -1.9614655
5.6621108 0.0089865923 -1.9598074
6.1421466 0.074259639 -1.9629385
6.6591578 0.14452934 -1.9554085
7.309289 0.23292893 -1.9588257
8.1676388 0.34968776 -1.9798428
9.0767269 0.47326404 -1.9727685
10.17449 0.62247247 -1.9588964
3.2690251 -0.32668626 -1.9832752
11.508006 0.76695687 -1.9298548
3.4600942 -0.3013036 -1.9890831
13.331373 1.0089674 -1.9099119
3.663307 -0.27431363 -1.993145
16.011879 1.3648126 -1.9045383
3.8613873 -0.24803984 -1.985113
19.620226 1.8437133 -1.856316
4.1061425 -0.21553409 -1.9894127
20.993858 2.0250213 -1.4888147
4.3273859 -0.18621027 -1.9725919
4.597558 -0.15036041 -1.9663726
4.9161716 -0.10806364 -1.9657389
5.2703362 -0.061049461 -1.9642357
5.6663709 -0.0084831715 -1.960495
6.1466231 0.055283368 -1.963586
6.663866 0.12393016 -1.9560159
7.3104467 0.20977616 -1.9583882
8.1672182 0.32357925 -1.9790008
9.0844297 0.44533163 -1.973675
10.178775 0.59057337 -1.9589878
3.2804599 -0.33440593 -1.9894043
11.543539 0.73896199 -1.9350793
3.468277 -0.3099947 -1.9930172
13.393222 0.97922033 -1.9179901
3.6593852 -0.28517389 -1.9903667
16.037447 1.3227212 -1.9069544
3.8698895 -0.25783032 -1.988722
19.635311 1.7900064 -1.8572022
4.1040535 -0.22741091 -1.9877406
21.039145 1.9713399 -1.4915671
4.3307776 -0.19799638 -1.9734367
20.955971 1.959106 -0.99416375
4.6065607 -0.16217852 -1.9694797
21.04973 1.9698739 -0.50185311
4.9198151 -0.1214897 -1.9665023
5.2797198 -0.074730158 -1.9670006
5.6609216 -0.025230944 -1.9579927
6.1412935 0.037187397 -1.9612656
6.6605806 0.10463256 -1.9544256
7.3361535 0.19243068 -1.9644841
8.187582 0.30310053 -1.9831856
9.0761108 0.41850227 -1.9712732
10.200046 0.56449622 -1.962371
3.2868979 -0.34398696 -1.9924853
11.554061 0.70350319 -1.9361459
3.4610109 -0.32193497 -1.9881651
13.416301 0.93945009 -1.9205849
3.6573455 -0.29705352 -1.9885277
16.057699 1.2741458 -1.9087009
3.87499 -0.26946682 -1.9905461
19.617537 1.7251101 -1.8550092
4.1128778 -0.23931879 -1.9911873
21.029806 1.9030311 -1.4905325
4.3343301 -0.21130395 -1.9742861
20.958466 1.8925631 -0.9940837
4.6065779 -0.17681932 -1.9687536
21.052261 1.903034 -0.50191414
4.9162431 -0.13758981 -1.9643739
5.2855711 -0.090775311 -1.9684098
5.6594343 -0.043431163 -1.9567696
6.1380763 0.017232537 -1.9595435
6.6918778 0.087421894 -1.9627044
7.3237414 0.16748816 -1.9605249
8.1850796 0.27670246 -1.981886
9.083643 0.39054459 -1.9721798
10.19245 0.53102309 -1.9602616
3.2846231 -0.35353392 -1.9904771
11.581604 0.67421991 -1.9400884
3.4587507 -0.33197379 -1.9862394
13.3915 0.89837712 -1.9165689
3.6586177 -0.30720592 -1.9885569
16.039652 1.2264218 -1.9060835
3.8727882 -0.28067201 -1.9887877
19.600677 1.6674385 -1.8529788
4.1035385 -0.25209254 -1.9861051
21.013397 1.8414102 -1.4890687
4.3449101 -0.2222116 -1.978372
20.947948 1.8318744 -0.99344462
4.606349 -0.18985218 -1.9680226
21.043745 1.8423269 -0.5017395
4.912406 -0.15195203 -1.9622406
5.2818151 -0.10617465 -1.9664096
5.6651697 -0.05870533 -1.9580889
6.1402164 0.00015169382 -1.9595926
6.6961207 0.069032431 -1.963306
7.3243761 0.14685655 -1.9600806
8.2091894 0.25655228 -1.9869869
9.0868149 0.3652373 -1.9722526
10.174547 0.4999488 -1.9563075
3.2789021 -0.36348474 -1.9864345
11.562042 0.63907856 -1.9363314
3.4685879 -0.34050891 -1.9911504
13.396072 0.86103874 -1.9166765
3.6686332 -0.31628647 -1.9932657
16.082607 1.1862369 -1.910561
3.8812075 -0.29055601 -1.9923973
19.648893 1.6177957 -1.8569655
4.1103215 -0.26283145 -1.9886956
21.024538 1.7832634 -1.4895098
4.3427591 -0.23472834 -1.9767863
20.955105 1.7734287 -0.993613
4.6097507 -0.20243084 -1.9688272
21.039028 1.7821696 -0.50165087
4.9362841 -0.16289651 -1.9709709
5.2780137 -0.1215477 -1.9644096
5.6708636 -0.074006021 -1.9594083
6.1517906 -0.015778661 -1.9626042
6.6945844 0.049927711 -1.9622637
7.3211083 0.12576061 -1.9586298
8.2023258 0.23251092 -1.9847639
9.0957441 0.34063059 -1.973563
10.178019 0.47159487 -1.9563893
3.2834103 -0.37217155 -1.9884951
11.614908 0.61266118 -1.9444456
3.478404 -0.34909728 -1.9960616
13.404477 0.82414812 -1.9173342
3.6505473 -0.32878402 -1.9829999
16.099813 1.1427786 -1.9120638
3.8842731 -0.30112284 -1.993323
19.687098 1.5667217 -1.8600415
4.1062984 -0.2748954 -1.9861709
21.019669 1.7231882 -1.4888625
4.3423877 -0.24701405 -1.9760107
20.962099 1.7149532 -0.99378175
4.605783 -0.21590233 -1.9665611
21.050024 1.723927 -0.50190622
4.9342251 -0.17706484 -1.9695621
5.2704329 -0.13734251 -1.9610478
5.6671033 -0.090457737 -1.9575429
6.1709099 -0.030866921 -1.9679859
6.6929946 0.030834973 -1.9612216
7.3350806 0.10674459 -1.9617077
8.1857271 0.20736253 -1.980252
9.0987768 0.31528538 -1.973636
10.187271 0.4439221 -1.9575717
3.2896049 -0.38067865 -1.9915731
11.632416 0.58187526 -1.9467852
3.4847317 -0.35814124 -1.9990195
13.432457 0.78950828 -1.9207417
3.6605086 -0.33789092 -1.9877089
16.107029 1.098105 -1.9124224
3.8748727 -0.31315449 -1.9879862
19.727146 1.515691 -1.8633008
4.0986457 -0.28735059 -1.9819411
21.024534 1.6643155 -1.4888959
4.3365321 -0.25992715 -1.9728042
20.968933 1.6564682 -0.99395072
4.6036096 -0.22913128 -1.9650627
21.050924 1.6645069 -0.50194687
4.9358273 -0.19078332 -1.9696016
5.2889562 -0.15004236 -1.9672176
5.6783605 -0.10512727 -1.9607732
6.1729155 -0.048039198 -1.9680355
6.731472 0.016423583 -1.9716872
7.3201618 0.084311068 -1.957238
8.1903248 0.18478799 -1.9807758
9.0959034 0.28925961 -1.9724718
10.223785 0.41938192 -1.963892
3.2873516 -0.39133611 -1.9895685
11.636568 0.54539078 -1.9468907
3.4894388 -0.36862713 -2.0010045
13.49434 0.75379592 -1.9288379
3.6705904 -0.34832531 -1.9924216
16.116734 1.0480039 -1.9130266
3.8780279 -0.32505926 -1.9889159
19.763884 1.4571085 -1.8662158
4.0965085 -0.30056897 -1.9802729
21.153006 1.6119113 -1.4973903
4.3417091 -0.27307233 -1.9744643
20.972454 1.5901945 -0.99396163
4.6235981 -0.24144691 -1.9727814
21.054468 1.5979731 -0.50205207
4.9375844 -0.20622414 -1.9696463
5.2852345 -0.1672278 -1.965223
5.6634293 -0.12482059 -1.9550916
6.1789112 -0.066938162 -1.9692762
6.7415166 -0.0037958026 -1.9739401
7.320848 0.061160266 -1.9568012
8.1932449 0.1591202 -1.9808501
9.114707 0.2625013 -1.9758543
10.227435 0.38732404 -1.9639847
3.2901356 -0.40083516 -1.9906138
11.628609 0.50963527 -1.9450653
3.4992504 -0.37795439 -2.0059178
13.500734 0.71403474 -1.9292288
3.6753023 -0.35876229 -1.9943249
16.116095 0.99959618 -1.9124782
3.8881838 -0.3355172 -1.9934225
19.815901 1.403512 -1.8705812
4.0996451 -0.31246015 -1.9811605
4.3540325 -0.28468505 -1.9793637
20.967419 1.5267208 -0.99360305
4.610424 -0.25672251 -1.9666792
21.075293 1.537077 -0.50253415
4.937346 -0.2210145 -1.9689642
5.2963095 -0.18181473 -1.9686726
5.6803579 -0.13989913 -1.9602364
6.1923265 -0.083953023 -1.9728844
6.7475476 -0.023313701 -1.975094
7.3405623 0.041406691 -1.9613929
8.2230234 0.137851 -1.9873298
9.1410379 0.23808414 -1.9808825
10.213199 0.35511094 -1.9607695
3.3219965 -0.40720636 -2.0089531
11.646059 0.47666079 -1.9474115
3.495156 -0.38883331 -2.0030177
13.510953 0.67466921 -1.9301698
3.679985 -0.36922356 -1.9962285
16.119261 0.95162922 -1.9123876
3.8965333 -0.34622306 -1.9970345
19.853918 1.3481507 -1.8736705
4.1261311 -0.32185024 -1.9931321
21.015903 1.4704366 -1.4874061
4.3572345 -0.29734373 -1.9802114
20.964182 1.4635088 -0.99333441
4.6173997 -0.26974577 -1.969022
4.9389162 -0.23559952 -1.9690065
5.2923856 -0.19806659 -1.9666753
5.6915913 -0.15567881 -1.9634702
6.1848021 -0.10327923 -1.9699746
6.7382226 -0.044498384 -1.9718636
7.3525243 0.020719767 -1.9639722
8.2275791 0.11372322 -1.9878583
9.142005 0.2108174 -1.9805485
10.208635 0.32403594 -1.9593893
3.3263874 -0.4160634 -2.0110145
11.66517 0.44582373 -1.9500734
3.4961729 -0.39853415 -2.0030458
13.469583 0.63228804 -1.9239537
3.6669927 -0.38091624 -1.9887701
16.163498 0.91076535 -1.9170979
3.9030042 -0.35648543 -1.99975
19.936983 1.3007636 -1.880947
4.1201348 -0.33406749 -1.9897549
21.022051 1.4117942 -1.4875765
4.3657775 -0.3086912 -1.9834881
20.970312 1.405009 -0.99350441
4.6224179 -0.28219718 -1.9705946
21.040453 1.4108307 -0.50185263
4.9477725 -0.24855798 -1.971944
5.30515 -0.21161556 -1.9708035
5.7215347 -0.16856319 -1.9730723
6.1809058 -0.12108725 -1.9682472
6.7287097 -0.064454198 -1.9686298
7.3508201 -0.00015664101 -1.963025
8.2338543 0.09120661 -1.9888405
9.1485682 0.18574834 -1.9814476
10.217484 0.29619223 -1.9605731
11.670448 0.41350609 -1.9504889
3.5058432 -0.40734884 -2.0079579
13.536482 0.60110074 -1.9328643
3.6820977 -0.3896589 -1.9962879
16.168095 0.86568671 -1.9172291
3.9094479 -0.36677888 -2.002466
19.966434 1.2475443 -1.8832984
4.1213021 -0.34551197 -1.9897883
21.024059 1.3527453 -1.4874748
4.3651958 -0.32100695 -1.9827131
20.984226 1.3473032 -0.99403393
4.6274028 -0.29467049 -1.9721676
21.062355 1.3537283 -0.50236815
4.9547386 -0.26174819 -1.9741569
5.3085251 -0.22617948 -1.9715272
5.7080684 -0.18601215 -1.9680218
6.1826596 -0.13828707 -1.9682972
6.7459283 -0.08163166 -1.9730688
7.3548322 -0.020428658 -1.963588
8.2361917 0.068273544 -1.9889072
9.1550617 0.16065478 -1.982347
10.220387 0.26771933 -1.9606559
11.691357 0.38270646 -1.9534725
3.518965 -0.41587126 -2.0148237
13.561912 0.56548065 -1.936
3.68487 -0.3997072 -1.9972537
16.178497 0.8211692 -1.9180473
3.9194245 -0.37675387 -2.0069711
19.997725 1.1943605 -1.8858329
4.1206374 -0.35714012 -1.9889691
21.023918 1.2934971 -1.4872371
4.3645778 -0.33331823 -1.9819378
20.968163 1.286607 -0.9932161
4.6360292 -0.3068065 -1.9752762
21.068184 1.2949529 -0.5025394
4.9635258 -0.27479222 -1.9770947
5.2837901 -0.24353397 -1.9620374
5.7134171 -0.20152164 -1.9693424
6.1862669 -0.15530717 -1.9689399
6.7669315 -0.098525703 -1.9786043
7.3549366 -0.041100144 -1.9631442
8.2229662 0.043804407 -1.985311
9.163434 0.13571936 -1.9836589
10.22321 0.23923343 -1.9607389
11.696654 0.34827322 -1.9538944
3.5095401 -0.42725012 -2.0089931
13.559861 0.52474767 -1.935292
3.6876748 -0.41040424 -1.9982213
16.163334 0.77135569 -1.915897
3.9240978 -0.38797361 -2.0087943
20.001444 1.1349077 -1.8858231
4.1470189 -0.36687598 -2.000942
21.021969 1.2304325 -1.486874
4.3749185 -0.34532729 -1.9860277
20.984085 1.225404 -0.99384683
4.6428614 -0.31996569 -1.9776196
21.020447 1.2274117 -0.50155723
4.9723592 -0.28874055 -1.9800351
5.2927804 -0.25842685 -1.9648067
5.705606 -0.21930981 -1.9662062
6.1937313 -0.17304921 -1.9707711
6.7420516 -0.12109828 -1.9709895
7.3608842 -0.062487066 -1.9642144
8.2330618 0.020214021 -1.9872136
9.1679907 0.10878468 -1.9841506
10.237868 0.2100879 -1.9630295
11.707747 0.31435138 -1.9552796
3.5174558 -0.4369505 -2.0129306
13.530072 0.48148042 -1.9307327
3.688689 -0.4212825 -1.9982531
16.161863 0.72290558 -1.9153498
3.9233968 -0.39971951 -2.0079334
20.010941 1.075979 -1.8863616
4.146359 -0.37928522 -2.0001252
21.027781 1.168108 -1.4870561
4.3779435 -0.35807577 -1.9868758
20.989887 1.1631901 -0.99402857
4.6441402 -0.33367878 -1.9776597
21.064089 1.1685612 -0.50255895
4.9811535 -0.3027418 -1.9829756
5.2961111 -0.27389503 -1.9655333
5.7185044 -0.23512661 -1.9700781
6.1992435 -0.19101244 -1.9720097
6.7611485 -0.13944536 -1.9759808
7.378334 -0.082840204 -1.9683045
8.2256403 -0.0050498247 -1.9849951
9.1900091 0.083442211 -1.9883561
10.258312 0.18139631 -1.9664217
11.726608 0.28108078 -1.9579492
3.5270829 -0.44653609 -2.0178452
13.573155 0.44491762 -1.9363523
3.6843903 -0.43263894 -1.9954767
16.203789 0.67836493 -1.919842
3.9208786 -0.41161683 -2.0061777
20.026213 1.0175498 -1.8874476
4.1420584 -0.39200991 -1.9976027
21.019493 1.1045392 -1.4862847
4.3882155 -0.3701804 -1.9909662
20.975603 1.0992002 -0.99331152
4.643539 -0.34755889 -1.976932
21.07172 1.1062956 -0.50278479
4.9861951 -0.31712258 -1.9844676
5.3237453 -0.28718892 -1.9751126
5.7256951 -0.25152075 -1.972039
6.2161183 -0.20797664 -1.9768045
6.7687006 -0.15892673 -1.9776837
7.364881 -0.10604864 -1.9643418
8.223959 -0.029738545 -1.9841506
9.1827192 0.055367708 -1.9863726
10.261054 0.15102297 -1.9665105
11.737329 0.2490682 -1.959329
13.59225 0.40843076 -1.9386641
3.6940875 -0.44209766 -2.0001872
16.233469 0.63538712 -1.9229523
3.934303 -0.42141607 -2.0124731
20.033077 0.96184593 -1.8877939
4.1502724 -0.40288782 -2.0010474
21.024616 1.0458884 -1.4864565
4.3874588 -0.38253435 -1.9901913
20.976734 1.0403273 -0.99330312
4.6593843 -0.35918421 -1.9831126
21.066893 1.0466383 -0.50274116
4.989264 -0.33082613 -1.9852326
5.3231649 -0.30216014 -1.974475
5.7365294 -0.26663068 -1.9752715
6.2138228 -0.22560805 -1.9756697
6.785676 -0.17644054 -1.982124
7.3628159 -0.12689257 -1.963395
8.2453566 -0.050967097 -1.9887972
9.1986017 0.030962229 -1.989336
10.261594 0.12225455 -1.9662272
11.74403 0.21668047 -1.9600673
13.565842 0.36806005 -1.934648
3.7002378 -0.45190459 -2.0030255
16.189779 0.58614773 -1.917587
3.961961 -0.43007931 -2.0259273
4.1656685 -0.41319722 -2.0079031
21.033556 0.9875651 -1.486901
4.3921342 -0.39441746 -1.9918481
20.985666 0.98213619 -0.99365467
4.6659999 -0.37166873 -1.9854541
21.059908 0.98686701 -0.50265443
5.0071545 -0.34328857 -1.9917935
5.333786 -0.31617516 -1.9779235
5.7454357 -0.28195336 -1.9778669
6.226706 -0.24193937 -1.9792765
6.7968569 -0.19452399 -1.9849203
7.3471894 -0.14884901 -1.9589249
8.2414789 -0.074419558 -1.9874907
9.1871176 0.0041921735 -1.9865226
10.244421 0.092019737 -1.96264
11.762775 0.18111914 -1.9627439
13.644346 0.33153981 -1.9452292
3.7082262 -0.46288574 -2.0068038
16.19788 0.5356701 -1.9181944
3.9594047 -0.44274753 -2.024174
21.025015 0.92043334 -1.4861408
4.3823185 -0.40903568 -1.9870253
21.004978 0.91738576 -0.99447781
4.665349 -0.38640806 -1.9847292
21.093203 0.92299777 -0.50345349
4.9935675 -0.36015609 -1.9860436
5.3538899 -0.33134422 -1.9847827
5.7469015 -0.29993472 -1.9779197
6.2321038 -0.26112473 -1.9805192
6.7928405 -0.21627343 -1.9833381
7.3664303 -0.17046094 -1.9635229
8.2241783 -0.10180831 -1.9829866
9.177762 -0.025545359 -1.984131
10.270555 0.061797082 -1.9671401
11.773066 0.15098804 -1.9641186
13.653077 0.29632968 -1.9461597
3.7107472 -0.47239882 -2.0077684
16.21904 0.49469751 -1.9203812
3.9602158 -0.45305729 -2.0242045
21.043268 0.86651379 -1.4872569
4.3959761 -0.41944954 -1.9927325
21.003323 0.86197418 -0.99436951
4.6718283 -0.39813265 -1.9870685
21.099537 0.86797076 -0.50365901
5.0001664 -0.37273648 -1.9882553
5.3624878 -0.34471771 -1.9875478
5.7632008 -0.313741 -1.9830613
6.2295742 -0.27768394 -1.9793816
6.7865653 -0.23460251 -1.9811976
7.3718023 -0.18939096 -1.9645864
8.2297487 -0.12298292 -1.9839656
9.2167168 -0.046629965 -1.9920428
10.274627 0.035113633 -1.9675862
11.762083 0.11303508 -1.9619796
13.634592 0.25187725 -1.9432586
3.7239616 -0.48305473 -2.0143552
16.242708 0.44527918 -1.9228225
3.9647205 -0.46516153 -2.0260305
21.032351 0.79927427 -1.4863605
4.4043107 -0.43264249 -1.9960154
20.990383 0.7947095 -0.99375379
4.6747766 -0.41260409 -1.9878794
21.072649 0.79936558 -0.50316226
5.0180817 -0.38711831 -1.9948221
5.3656335 -0.36135715 -1.9882783
5.7759099 -0.33092806 -1.9869378
6.2462897 -0.29604477 -1.9841806
6.7939296 -0.25542623 -1.9829047
7.3774123 -0.21219599 -1.9656613
8.2705307 -0.14586592 -1.9932021
9.2325649 -0.074499667 -1.9950168
10.269224 0.0023117661 -1.9662123
11.788242 0.079899728 -1.9659358
13.671119 0.21389818 -1.9480563
16.309622 0.40169388 -1.9302974
21.048822 0.73779386 -1.4873627
4.3997836 -0.44603965 -1.9936222
21.008858 0.73349398 -0.99456733
4.6739378 -0.4265404 -1.9871522
21.089155 0.73776168 -0.50360602
5.0377517 -0.40059453 -2.0021112
5.3611593 -0.37761626 -1.9862819
5.7941685 -0.34676918 -1.9927233
6.2457261 -0.31464732 -1.9836425
6.78196 -0.27648351 -1.9791263
7.3847899 -0.23360014 -1.9672359
8.280077 -0.16977793 -1.9951065
9.2404079 -0.10140353 -1.9963357
10.267512 -0.028369784 -1.9655676
11.784629 0.046628952 -1.9650695
13.695518 0.17727095 -1.9511966
16.330635 0.35742742 -1.9324943
21.036997 0.67797011 -1.4864452
4.4152298 -0.45724964 -2.0001431
4.6877408 -0.43863541 -1.9925662
5.0331502 -0.41499141 -1.9999788
5.358448 -0.39278919 -1.9849638
5.7763815 -0.36420307 -1.9863985
6.2412229 -0.33242652 -1.9819155
6.7909541 -0.2948328 -1.9813752
7.3862252 -0.2541647 -1.9672967
8.2778015 -0.19311136 -1.9942585
9.2558708 -0.12620771 -1.999301
10.291084 -0.0554986 -1.9696914
11.77107 0.012739956 -1.9625974
13.676334 0.13765156 -1.9482818
16.337652 0.31214553 -1.9330873
21.032963 0.61875826 -1.4860731
4.4160514 -0.46951765 -2.0001793
4.6941414 -0.45129508 -1.9949086
5.0303683 -0.42923328 -1.9985712
5.3725801 -0.40681577 -1.9897755
5.798265 -0.37888694 -1.9934558
6.2271395 -0.35080782 -1.9772248
6.8018155 -0.31309792 -1.9841725
7.3451138 -0.27754903 -1.9562811
8.2715769 -0.21668106 -1.9924943
9.2517395 -0.15238166 -1.9981388
10.302814 -0.083526969 -1.9716123
13.718619 0.097238958 -1.953914
16.336967 0.26063806 -1.9327807
21.023249 0.55187339 -1.4853137
4.409636 -0.48378709 -1.9969776
4.6913948 -0.46620765 -1.9934161
5.0350957 -0.44473091 -2.0000668
5.3642726 -0.42422104 -1.9864197
5.7899671 -0.39763367 -1.9903232
6.2417312 -0.36945668 -1.981432
6.7897425 -0.33524778 -1.9803976
7.3697667 -0.29909059 -1.962391
8.3062658 -0.24051303 -2.0003588
10.283298 -0.11718506 -1.9676683
13.73663 0.06232053 -1.9562227
16.343546 0.21814817 -1.9333658
21.048519 0.49818474 -1.4869776
4.434063 -0.49382776 -2.00755
4.6792388 -0.47922382 -1.9880764
5.0452013 -0.45729256 -2.0037289
5.3857746 -0.436955 -1.9939537
5.8079205 -0.411704 -1.9961036
6.2484465 -0.3853983 -1.9832587
6.815783 -0.35145831 -1.9875779
7.4037871 -0.31634438 -1.9710078
8.3114786 -0.26197374 -2.0013392
10.30064 -0.14311141 -1.970686
13.762736 0.022992909 -1.9596471
21.036221 0.43489605 -1.4860711
4.6947937 -0.49218333 -1.9942614
5.0572367 -0.47154656 -2.0081205
5.3754392 -0.45351908 -1.9899141
5.8164926 -0.42843044 -1.998704
6.2666864 -0.40287834 -1.9886489
6.8092785 -0.37205553 -1.9854445
7.3741465 -0.34002391 -1.9630164
8.3148546 -0.2864534 -2.0018704
10.325973 -0.17225248 -1.975184
13.764992 -0.017783523 -1.9597683
21.043655 0.37274832 -1.4865294
4.7084675 -0.50533867 -1.9996789
5.0748153 -0.485567 -2.0146868
5.3913383 -0.46858031 -1.9954106
5.8079782 -0.44614467 -1.9955683
6.2734332 -0.42109612 -1.9904822
6.8411202 -0.39051607 -1.9942777
8.3084421 -0.31148669 -2.0001111
10.33159 -0.20261645 -1.9760094
13.758969 -0.054170907 -1.9587741
4.7201767 -0.51702684 -2.0043235
5.073648 -0.49889225 -2.0140014
5.3995886 -0.48224384 -1.9981772
6.285738 -0.43686503 -1.9940881
6.8362961 -0.40866807 -1.9926858
8.2940273 -0.33398771 -1.9965103
10.315338 -0.23052138 -1.9727839
4.7301321 -0.53133136 -2.0082078
5.0614033 -0.51540369 -2.0089762
5.3929143 -0.49950695 -1.9955027
6.2905312 -0.45635584 -1.9953325
6.8508062 -0.42941767 -1.9965881
8.2992067 -0.35978511 -1.9975041
10.366033 -0.26047146 -1.9820635
5.0602379 -0.53044391 -2.008296
5.3992925 -0.51518458 -1.9975938
6.281857 -0.47539657 -1.9924237
6.8459868 -0.44994676 -1.9950035
5.4206142 -0.52930617 -2.0051324
6.829525 -0.46975189 -1.9901249
5.0670509 -0.55923867 -2.0105569
5.3893261 -0.54661447 -1.9935989
6.8534107 -0.48902291 -1.9967663
6.8445249 -0.50845832 -1.9940814
7.5444598 -1.0069035 -2.0073631
