# .PCD v0.7 - Point Cloud Data file format
VERSION 0.7
FIELDS x y z
SIZE 4 4 4
TYPE F F F
COUNT 1 1 1
WIDTH 678
HEIGHT 1
VIEWPOINT 0 0 0 1 0 0 0
POINTS 678
DATA ascii
-4.0660338 8.3329077 0
-4.0604672 8.3845367 0
-4.3298178 9.0007133 0
-3.0875123 6.5198979 0
-3.0755413 6.5388169 0
-4.1554999 8.8348856 0.22667664
-3.0710506 6.5828829 0
-29.808531 64.838165 0
-3.9872913 8.6729755 0.44515127
-34.722286 76.155891 0
-3.8612032 8.5955725 0.65891963
-3.7893891 8.5031185 0.65096742
-3.8255961 8.7190895 0.22105962
-3.6276126 8.3310061 0.84773189
-2.8562598 6.7223997 0.16957808
-3.4855525 8.2034826 1.0423363
-2.8402061 6.7335391 0.16967092
-3.3375394 8.0456123 1.2241668
-3.2194829 7.960494 1.4107729
-3.1082931 7.7477498 0
-3.167845 7.8961892 1.3978032
-3.6350977 9.1345959 0.4584741
-3.591239 9.0982542 0.45614496
-2.8563454 7.4917979 0.1861506
-2.6333547 6.9689679 0.34741923
-2.6175678 6.9898477 0.3480714
-2.6311784 7.276484 0.36083525
-2.6163161 7.3030663 0.36176693
-3.3367143 9.4962654 0.70384282
-2.4441013 7.0821209 0
-2.4375722 7.0632024 0.1734775
-2.4538312 7.1103144 0.35077322
-2.4283845 7.0365796 0.52052283
-2.418551 7.0760937 0
-2.4120796 7.0571594 0.17315255
-2.4126947 7.0589595 0.34788507
-2.4152408 7.0664086 0.52219695
-2.4126022 7.0586886 0.69594646
-2.4182429 7.0751925 0.8743825
-2.3910286 7.0558829 0
-2.3891013 7.0501952 0.1728276
-2.3897154 7.0520077 0.34723291
-2.3864851 7.0424747 0.51996475
-2.3877206 7.0461211 0.69408858
-2.379308 7.0212955 0.86694884
-2.3836505 7.0341101 1.0437983
-2.3707204 7.0648417 0
-2.3700819 7.0629387 0.17296685
-2.3656046 7.0495963 0.34676707
-2.3617721 7.0381756 0.51912767
-2.361737 7.0380712 0.69260234
-2.3539495 7.0148635 1.0399015
-2.3638442 7.0443501 1.2207676
-2.3647451 7.0470352 1.4004905
-2.351011 7.0756402 0
-2.3478558 7.0661445 0.17287402
-2.3478289 7.0660634 0.34723291
-2.3377349 7.0356846 0.51843011
-2.3389621 7.0393772 0.69204497
-2.3344722 7.0258646 0.86578739
-2.3281312 7.0067806 1.0376747
-2.3329775 7.0213666 1.2155797
-2.3270946 7.0036607 1.3904923
-2.3343797 7.0958843 0
-2.3287523 7.0787783 0.17301328
-2.3237295 7.0635104 0.34676707
-2.3105958 7.0235877 0.68981552
-2.3067851 7.0120039 0.86323202
-2.3054724 7.0080142 1.0368397
-2.3059652 7.0095115 1.2123373
-2.2989318 6.988132 1.3860487
-2.3182716 7.1179929 0
-2.3133125 7.1027665 0.17343107
-2.312043 7.0988679 0.34816456
-2.3008852 7.06461 0.51954621
-2.2946808 7.0455599 0.69130182
-2.2878165 7.0244832 0.86392891
-2.282217 7.0072908 1.0357263
-2.2802691 7.0013103 1.2097434
-2.2757537 6.9874463 1.3845674
-2.3014569 7.1339555 0
-2.294698 7.1130042 0.17352392
-2.2946649 7.1129012 0.34853724
-2.2817621 7.072906 0.51968575
-2.2786667 7.0633111 0.69241655
-2.2700224 7.0365162 0.86462581
-2.2638576 7.0174065 1.036283
-2.2625279 7.0132852 1.2107161
-2.2544231 6.988162 1.3834565
-2.2888288 7.1632161 0
-2.2833436 7.1460495 0.17417382
-2.2760069 7.1230884 0.34872356
-2.2674649 7.096355 0.52094138
-2.2643859 7.086719 0.69408858
-2.2558033 7.0598588 0.86671656
-2.2472641 7.033134 1.0376747
-2.2453349 7.0270958 1.212013
-2.2337012 6.9906869 1.3827159
-22.422052 70.940903 0
-2.2536192 7.1302032 0.34872356
-2.2547817 7.1338811 0.52317357
-2.2457135 7.1051903 0.6952033
-2.2390025 7.0839572 0.86880732
-2.2311282 7.0590439 1.0404582
-2.2274122 7.0472875 1.2142828
-2.2135069 7.0032921 1.3838269
-2.2282925 7.1148462 0.69557488
-2.2234151 7.0992732 0.86996877
-2.2150052 7.0724206 1.0415715
-2.2148511 7.071928 1.2175251
-2.1986868 7.0203171 1.3860487
-2.1933632 7.0812359 1.04185
-2.1972959 7.0939326 1.2201191
-2.1830192 7.0478406 1.3901221
-3.4895136 11.385243 0
-2.1609473 7.050528 1.3893814
-3.4730563 11.438357 0
-3.5451608 12.731634 0
-2.830447 10.282882 1.2472264
-2.8080325 10.328143 1.2516401
-3.1690967 11.786085 0.28335741
-3.0245562 11.935419 0.28586417
-2.9843831 11.907714 0
-2.9796903 11.888989 0.28456435
-2.9821148 11.898664 0.57204455
-2.9432702 11.89322 0
-2.9429574 11.891956 0.28442511
-2.939115 11.87643 0.57055384
-2.903048 11.89075 0
-2.8998947 11.877834 0.28386804
-2.8975272 11.868136 0.56971538
-2.8789492 11.927471 0
-2.8772354 11.920371 0.28470364
-2.8664486 11.875681 0.56971538
-2.8484135 11.96564 0
-2.8457942 11.954638 0.28530711
-2.8254273 11.869081 0.56897002
-2.7902281 11.858933 0.56813157
-2.7554781 11.869107 0.56822473
-2.7189078 11.871388 0.56794518
-2.7045507 11.96207 0
-2.6853132 11.876984 0.56785202
-2.6642551 11.94857 0
-2.6470146 11.871251 0.56719989
-2.6104898 11.873199 0.5669204
-12.913132 59.57457 0
-2.5735593 11.873082 0.56654769
-12.750435 59.576878 0
-2.5399601 11.868058 0.56598866
-12.558239 59.593159 0
-2.5014236 11.870114 0.56570923
-12.39222 59.629948 0
-2.4662416 11.867272 0.56524336
-17.474737 85.433151 0
-2.4245343 11.853433 0.56421852
-17.265665 85.55114 0
-2.4120646 11.951748 0.28307888
-2.385591 11.820572 0.56235516
-2.3686664 11.929847 0.28238255
-2.3500025 11.835846 0.56272787
-16.714727 85.511726 0
-2.3144877 11.840807 0.56263471
-16.495558 85.499283 0
-2.2893405 11.866042 0.56356633
-2.251303 11.86925 0.56338
-15.966598 85.481636 0
-2.2126484 11.846031 0.56198251
-15.715042 85.540443 0
-2.1792924 11.86237 0.56244832
-15.465444 85.524948 0
-2.143316 11.852682 0.56170303
-2.1098897 11.868824 0.56216884
-2.072942 11.865191 0.56170303
-14.716152 85.642845 0
-2.0404789 11.874872 0.56188935
-2.0019135 11.861174 0.56095767
-14.208557 85.64135 0
-1.9691067 11.86869 0.56105083
-1.9305295 11.866929 0.56067818
-13.704311 85.654625 0
-1.8975577 11.860106 0.56011915
-1.859363 11.860088 0.55983967
-1.8259284 11.86326 0.5597465
-1.7868659 11.857085 0.55918753
-1.7889099 11.870648 0.83944941
-1.7858212 11.850153 1.1180474
-1.786173 11.852487 1.4017067
-1.7543341 11.86598 0.55937386
-1.7516708 11.847966 0.83749622
-1.7486471 11.827514 1.1154464
-12.427026 85.707771 0
-1.7197542 11.860948 0.55890799
-1.7137077 11.819246 0.83512449
-1.7124649 11.810675 1.1134028
-1.713676 11.819027 1.3965961
-12.181684 85.807632 0
-1.6848376 11.867976 0.55900121
-1.6808776 11.840082 0.83624065
-1.6782563 11.821618 1.1139601
-1.6791615 11.827994 1.3970608
-1.6595459 11.913899 0.56095767
-1.6537242 11.872107 0.83819377
-1.6525177 11.863444 1.1174901
-1.6512009 11.853992 1.399616
-1.6177664 11.887128 0.83889139
-1.6192698 11.898174 1.1202768
-1.6185087 11.892582 1.4035652
-11.429713 85.775848 0
-5.1054277 85.181145 0
1.2621288 11.948186 0.84014696
1.2589035 11.917652 1.1180474
1.2572733 11.90222 1.399616
1.2990385 11.938482 0.56002599
1.2966352 11.916394 0.83819377
1.2946122 11.897802 1.1165612
1.2922931 11.87649 1.3970608
1.3326825 11.918692 0.55928069
1.3291074 11.886719 0.83638012
1.3252645 11.852348 1.1126597
1.3248801 11.848912 1.394273
1.3638791 11.915162 0.55928069
1.3615817 11.895091 0.83721721
1.359005 11.87258 1.1148891
1.3588309 11.87106 1.397293
1.3978255 11.899158 0.55872166
1.3989619 11.908833 0.83847278
1.3960822 11.884317 1.1163753
1.3982166 11.902488 1.4014745
1.4332001 11.913061 0.55956018
1.4353138 11.930631 0.84028649
1.4311703 11.896189 1.1178616
1.433351 11.914315 1.4033328
1.4706223 11.908499 0.55956018
1.5043644 11.908311 0.5597465
1.5412316 11.915682 0.56030554
1.5742425 11.90935 0.56021237
1.6058158 11.87691 0.55890799
1.6378869 11.864463 0.55853534
1.6762731 11.867171 0.55890799
1.711393 11.876287 0.55956018
2.6018255 17.683619 0
1.7533151 11.916616 0.56170303
2.6562462 17.709909 0
1.7803665 11.870184 0.5597465
1.8144108 11.87109 0.56002599
1.8502384 11.869604 0.56021237
1.8840017 11.868337 0.5603987
1.9239969 11.892277 0.56179619
1.9602462 11.892429 0.56207567
2.0121572 11.972824 0.28187191
1.9999189 11.900003 0.56272787
2.0430853 11.977726 0.28210402
2.0289884 11.895082 0.56272787
10.6803 61.448746 0
2.0690823 11.904396 0.56347317
10.813596 61.202034 0
2.1012783 11.892669 0.56319368
10.999403 61.193298 0
2.1354988 11.880483 0.56291419
2.1704593 11.884298 0.56338
2.2075329 11.88763 0.56384587
2.2410893 11.883382 0.56393903
2.3008559 11.993291 0
2.2806671 11.888056 0.56449807
2.3114042 11.880081 0.56440485
2.350657 11.88256 0.56487066
2.3866875 11.87945 0.56505698
2.4181767 11.87512 0.5651502
2.4779997 11.976328 0
2.473686 11.95548 0.28345025
2.4591181 11.885072 0.56598866
2.5048611 11.938045 0
2.5009015 11.919173 0.28275391
2.4951675 11.891846 0.56664085
2.5323551 11.893394 0
2.5320892 11.892144 0.28228971
2.5312703 11.888297 0.56682718
2.5706489 11.919958 0
2.568692 11.910884 0.28289318
2.5670159 11.903112 0.56785202
2.6140761 11.939175 0
2.6069572 11.906661 0.28298602
2.6521697 11.953307 0
2.6445255 11.918855 0.28345025
2.7476752 12.045256 0.28683904
2.7545648 11.912376 0.28386804
2.7894447 11.902204 0.28382161
2.5631235 10.264858 1.4869256
3.1743064 12.563182 0
2.5767362 10.198135 1.4782969
3.1955018 11.514829 0
1.9365891 6.9035158 0
1.9679837 6.9362202 0
1.964179 6.9228101 0.16707131
1.9685739 6.9382997 0.33633238
1.9626453 6.9174042 0.50280464
1.9806896 6.9810023 0.84859705
1.9439662 6.8515692 1.0009331
1.9812803 6.9095497 0
1.9735818 6.8827019 0.16623572
1.9758254 6.8905263 0.3342827
1.9775541 6.8965545 0.50168854
1.9699694 6.8701038 0.66677839
1.96568 6.855145 0.83396208
1.9718251 6.8765755 1.0053866
1.9692135 6.8674674 1.1737527
1.9659848 6.8562078 1.343834
1.9962885 6.8802423 0
1.9924077 6.8668671 0.16600361
1.9941214 6.8727732 0.33372372
1.9908698 6.8615661 0.49959585
1.9920962 6.8657932 0.66696417
1.9890022 6.8551297 1.0031598
1.9852779 6.8422937 1.1705102
1.9809411 6.8273468 1.3393903
2.0115576 6.8612061 0
2.010453 6.8574381 0.16591077
2.0088117 6.8518405 0.33297837
2.0100253 6.8559794 0.49959585
2.005101 6.8391833 0.66492057
2.0018544 6.8281097 0.83210367
2.0025678 6.830543 1.0003763
2.000493 6.8234658 1.1682405
1.9972364 6.8123584 1.3375388
2.0273581 6.8398671 0
2.0251071 6.8322735 0.16544655
2.0308347 6.8515964 0.33325785
2.0258214 6.8346829 0.49847975
2.0236852 6.827476 0.66436321
2.0192811 6.8126173 0.83094215
2.0160704 6.801785 0.99703622
2.0201678 6.8156085 1.1679163
2.0135291 6.7932115 1.3349468
2.040673 6.8192072 0
2.0464287 6.8384404 0.16572508
2.0436122 6.8290296 0.33241937
2.0392714 6.8145232 0.66362005
2.0365424 6.8054042 0.83070987
2.0333047 6.7945852 0.99675781
2.0346115 6.7989516 1.1659708
2.0307455 6.7860332 1.3345764
2.0690026 6.8399234 0
2.069603 6.841908 0.1659572
2.0696485 6.8420587 0.33335102
2.068584 6.8385391 0.49959585
2.0646691 6.8255973 0.66529208
2.0601752 6.81074 0.83210367
2.0586154 6.8055844 0.99926293
2.0570598 6.8004413 1.1672678
2.052577 6.7856221 1.3356873
2.0957189 6.8547935 0
2.0910621 6.8395619 0.16605003
2.0946121 6.8511734 0.33409637
2.0935304 6.8476353 0.50071198
2.0872397 6.8270593 0.66603523
2.0832765 6.8140965 0.83326513
2.0811138 6.8070226 1.0003763
2.0801117 6.8037448 1.168889
2.0749986 6.7870207 1.3371685
2.1196084 6.8558178 0
2.1184468 6.8520608 0.16651425
2.1208482 6.8598275 0.3348417
2.1138561 6.8372116 0.50043297
2.1122081 6.831882 0.6671499
2.1093693 6.8227 0.8351236
2.1095107 6.8231568 1.0037165
2.1084731 6.8198013 1.1727799
2.1015372 6.7973676 1.3405012
2.1476851 6.8785095 0
2.1477025 6.8785644 0.16730341
2.1423764 6.8615069 0.33521438
2.1406696 6.8560405 0.50224662
2.1407731 6.8563714 0.67012244
2.1355169 6.8395376 0.83791119
2.1356382 6.8399262 1.0070567
2.1345665 6.8364935 1.1766708
2.1257815 6.8083577 1.343834
2.1789532 6.9107518 0.3379162
2.1616089 6.8557434 0.50266516
2.214606 6.9560399 0.34043172
24.619339 76.588318 0
2.2028437 6.8528275 0.33568022
25.362936 75.889938 0
2.3861487 7.0617476 0.1730597
22.212049 65.172836 0
2.3111026 6.7810545 0.16632856
22.408209 65.078156 0
2.303751 6.690578 0.16428602
22.639729 65.158913 0
22.720381 64.806656 0
3.2401111 9.2419567 0.91368514
22.903214 64.71257 0
3.2462561 9.1722317 0.90774006
2.5698011 7.1969638 0
23.572578 65.403687 0
23.791988 65.439125 0
2.3918235 6.5148129 0
25.359236 68.48143 0
25.408976 68.031898 0
24.636848 65.337402 0
25.434359 66.851044 0
24.693928 64.36348 0
25.45587 65.765266 0
24.896261 63.78981 0
25.102846 63.792618 0
3.2073269 8.0801716 1.4282819
3.5328698 8.7485619 0.65975672
3.5610723 8.7435837 0.66017526
3.3744118 8.2852716 1.2572899
3.5526073 8.5136414 1.0788077
3.7689531 8.7472134 0.88860428
31.726219 72.480492 0
3.9764709 9.0116119 0.68877542
4.2167187 9.3346481 0.4776665
3.805002 8.3609133 0.4283812
3.80669 8.3030357 0.42595887
4.4315724 9.5864038 0.24519885
3.8436525 8.3146114 0.42717004
4.4566126 9.5659666 0.24501318
25.640684 54.218781 0
25.681644 54.305393 1.3946903
4.7080603 9.8839712 0
31.61762 65.873047 0
31.915056 65.522636 0
31.952469 65.108063 0
25.639149 51.514233 0
25.625113 51.486031 1.3352243
31.985571 62.451508 0
4.0505538 7.9086661 0.20629756
4.073544 7.8923492 0.20620473
25.603592 48.93354 1.2822108
31.870123 60.014748 0
25.660608 46.36927 0
25.617874 46.292046 1.2283617
4.2890601 7.5439816 0
4.3054652 7.5208063 0
25.679869 43.682903 0
25.694229 43.707333 1.1771123
25.64637 41.13855 0
25.614077 41.086746 1.1240989
3.3896446 5.4372239 1.2071918
3.4121249 5.4393921 1.2097839
3.4145005 5.4053831 1.2045996
25.697454 38.415421 0
25.714989 38.441631 1.0737778
3.5552108 5.2195711 1.0375713
3.5954297 5.2470675 1.0450289
3.6488817 5.2893519 1.0557288
25.693752 35.888638 0
25.682175 35.872463 1.0242925
3.7403591 5.0695958 0.88541937
3.759707 5.033031 0.88291425
31.850569 41.885628 0
25.714018 33.198151 0
25.734028 33.223988 0.97568905
3.8868771 4.8707509 0.72872949
3.9127729 4.8474207 0.72849721
25.740999 30.611782 0
25.749506 30.621899 0.92889607
4.0640059 4.6916175 0.57908839
4.0635185 4.6630235 0.57704479
4.1190143 4.7017994 0.5831756
25.746393 28.038252 0
25.72864 28.018919 0.88317084
4.2146516 4.5101819 0.43165305
25.776602 27.420519 0
4.2225475 4.4918427 0.431095
4.2679677 4.5148306 0.43444332
4.3656421 4.3307357 0.2867676
25.748127 25.399969 0
25.773926 25.425421 0.84055579
4.3663425 4.3073025 0.28602228
4.4083023 4.3244734 0.28797877
25.833899 25.061035 0.83563513
25.864122 23.94206 0.81827343
4.5140262 4.1537671 0.14242144
4.5101357 4.1284351 0.14195722
4.5837259 4.1694088 0.14386052
25.846064 23.378319 0.80912834
25.871119 23.269943 0.80787492
25.784527 22.924799 0
25.725279 22.872124 0.79919416
25.803497 22.812956 0
25.793552 22.804163 0.79933345
25.842527 22.703224 0.79863709
25.854626 22.58625 0.7970587
25.750938 22.361292 0.79181314
25.87771 22.337051 0.79366994
25.916563 22.236732 0.7928344
4.6549363 3.9700754 0
25.892666 22.083189 0.79009551
4.6768212 3.969043 0
25.806293 21.900835 0.78582478
25.862738 21.809345 0.78545332
25.831621 21.65995 0.78266805
25.894243 21.581924 0.78262168
25.817389 21.395981 0.77849013
25.81748 21.267166 0.77658683
25.878927 21.189198 0.7765404
25.871319 21.062571 0.7745443
25.846655 20.915287 0.7719447
25.896139 20.82847 0.77157331
25.870363 20.681633 0.76897371
25.898273 20.585676 0.76809174
25.844288 20.425241 0.76479572
25.781221 20.251404 0
25.780565 20.250887 0.76112843
25.849609 20.188681 0.76149982
4.8575578 3.7259917 0
25.878843 19.850376 0.75722903
4.8962831 3.7313199 0
25.887577 19.621281 0.75416517
25.909166 19.509781 0.75300467
25.862707 19.361866 0.75008011
25.823494 19.227228 0.74748051
25.864305 18.784645 0
25.827457 18.531582 0
25.864361 18.55806 0.73907816
25.796667 17.623693 0
25.806227 17.630224 0.72561592
25.956167 17.613319 0
25.90765 17.363329 0
25.929459 16.316008 0.71127164
25.800623 15.106896 0
25.824732 15.121012 0.69479197
25.827156 15.025728 0
25.832294 15.028718 0.69386357
25.891415 13.501198 0.67794096
25.924774 12.8579 0.67185974
25.827852 12.519064 0
25.914454 12.561042 0.66861022
25.828468 12.430415 0
25.835924 12.434004 0.66568565
25.822235 12.151022 0.66257542
25.9252 11.929759 0.66257542
25.935108 11.666586 0.6602543
25.940136 11.209178 0.65607637
25.948925 11.12709 0
25.95553 10.948035 0
25.941669 10.862284 0
25.889164 10.660175 0
25.894753 10.572735 0
25.926012 10.49585 0
25.9534 10.427943 0
25.934063 10.330901 0
25.936623 10.237631 0
25.956339 10.166959 0.64720982
25.911366 10.06076 0
25.828737 9.8578787 0
25.847931 9.8652039 0.64233559
25.878611 9.7942114 0
25.860416 9.7873259 0.6419642
25.927021 9.3752127 0
25.945055 9.2182064 0
25.914314 9.0344658 0
25.871391 8.9385443 0
25.903818 8.8688583 0
25.980801 8.8041286 0
25.920341 8.7080612 0
26.006796 8.651309 0
26.027233 8.5724277 0.63620794
25.94063 8.4686928 0
25.96711 8.3871498 0
25.893276 8.2835283 0
25.911444 8.1201563 0
25.933508 8.0426521 0
25.96307 7.557724 0.62780559
25.920195 7.3933516 0
25.888216 7.3842301 0.62502033
25.859867 7.2834916 0
25.891394 7.2923713 0.62450969
25.876921 7.2152333 0
25.858393 7.2100673 0.62325633
25.97987 7.1658144 0
25.953596 7.1585679 0.62506676
25.945402 6.9957538 0
25.922968 6.9897046 0.62334913
25.900335 6.9012375 0
25.97064 6.9199705 0.62399906
25.90716 6.8207874 0
25.915651 6.8230228 0.62218863
25.902122 6.7325239 0.62135303
25.916189 6.6589656 0
25.916952 6.6591616 0.62126017
25.826128 6.5590034 0
25.954824 6.5916877 0.62172443
25.904804 6.4924273 0
25.965708 6.5076909 0.62149227
25.949713 6.4363241 0
25.91749 6.4283323 0.61996037
25.919292 6.3424144 0
25.918135 6.3421311 0.61949617
25.925241 6.2671814 0
25.953239 6.2739496 0.619914
25.91951 6.1796794 0
25.945589 6.1858974 0.61926407
25.899675 6.0985694 0
25.927731 6.105175 0.61842847
25.948574 6.0336452 0.61852127
25.900318 5.9367247 0
25.903086 5.9373584 0.61698937
25.954567 5.8824487 0.6178714
25.919409 5.7889223 0
25.959259 5.797823 0.61754644
25.949966 5.7197185 0.616943
25.949381 5.6436558 0
25.918943 5.6370363 0.61582887
25.91111 5.5501299 0.61522537
25.957811 5.4843564 0.61596817
25.885878 5.3889928 0.61387914
25.936083 5.3239136 0.61471474
25.920153 5.160552 0.61360061
25.939665 4.8544793 0
25.963526 4.7745757 0.61290431
25.885359 4.6855006 0
25.915768 4.6910052 0.61146522
25.855022 4.605485 0
25.869709 4.6081014 0.61007255
26.002232 4.5474792 0.61285788
26.007357 4.4829025 0.61271858
26.009483 4.3991804 0.61244011
25.990862 4.31674 0.61169738
25.98037 4.2451386 0.61118668
25.987652 4.1625547 0.61104745
26.005102 4.0908914 0.61118668
25.991436 4.0097561 0.61058325
26.00915 3.9335225 0.61072248
25.958721 3.8517702 0.60928345
25.999054 3.7835882 0.60997975
25.997644 3.7092683 0.60970122
25.997284 3.6259236 0.60942268
25.999386 3.5522208 0.60923702
26.025665 3.4771988 0.60960835
25.897694 2.0154643 0
25.908657 2.0163176 0.60334146
-5.2498231 2.8172898 0
-5.2519979 2.8385601 0
-5.2272468 2.8464365 0
-5.1606278 3.0653746 0.13935763
-5.10636 3.054883 0.13815066
-5.092135 3.066926 0.1380114
-52.053108 31.960684 0
-4.9711699 3.2940907 0.27810308
-4.9482174 3.3213046 0.27791673
-4.8194585 3.5493171 0.41853887
-4.7870831 3.5461359 0.41658565
-61.412815 45.775684 0
-4.7813401 3.5638998 0.4170042
-61.400314 46.335693 0
-52.225281 39.641148 0
-61.384052 48.027515 0
-61.401146 48.300583 0
-61.414391 48.606678 0
-61.405312 48.914005 0
-61.424564 49.175156 0
-61.437962 49.503403 0
-52.325996 42.402988 0
-52.266598 42.612415 0
-4.5962667 3.7472887 0.55326444
-61.384529 50.368004 0
-61.4673 50.723804 0
-4.5939159 3.7909737 0.55567962
-61.383564 50.925411 0
-61.355484 52.143799 0
-61.495819 53.175465 0
-61.441875 54.092106 0
-4.4404626 4.0249538 0.70085335
-4.4306746 4.0386758 0.70108563
-4.4230642 4.0558324 0.70178258
-61.539131 56.727043 0
-61.507244 57.056095 0
-4.265028 4.2665167 0.84784263
-4.0963688 4.549479 1.0057958
-4.0775876 4.5557303 1.0044987
-4.0609131 4.5626769 1.0035261
-3.9048257 4.8220587 1.1690503
-3.881876 4.8229055 1.1664582
-3.8495839 4.8085017 1.1605334
